1.673100320368926385e-04,2.279898298813249843e-04,3.091853578494045836e-04,4.174430341987396867e-04,5.613434496012574375e-04,7.521376492754199396e-04,1.004575175385712203e-03,1.337965393259998555e-03,1.777509092271174242e-03,2.355922646814866735e-03,3.115347850439710922e-03,4.109492938922797330e-03,5.405881899937691609e-03,7.088000699330219284e-03,9.257026233562705431e-03,1.203271876036197431e-02,1.555297044792595951e-02,1.997145691878443249e-02,2.545286397682068602e-02,3.216528500828283454e-02,4.026962389952001148e-02,4.990619507095460372e-02,6.117916415823253240e-02,7.413997047483750213e-02,8.877134055195418094e-02,1.049738484584156611e-01,1.225571088760743221e-01,1.412375265326599738e-01,1.606440328877689339e-01,1.803324359790646481e-01,1.998079735508156429e-01,2.185545325735660516e-01,2.360679581627745938e-01,2.518901071969124605e-01,2.656399623689992828e-01,2.770383022649809956e-01,2.859231253168018627e-01,2.922541583712575664e-01,2.961061713671120366e-01,2.976522460124593206e-01,2.971393795082701295e-01,2.948596529665070132e-01,2.911205402751372850e-01,2.862177516270396627e-01,2.804133638790888283e-01,2.739210274593257277e-01,2.668989373891691441e-01,2.594501980370780281e-01,2.516293507933110019e-01,2.434532702355580724e-01,2.349144031804197563e-01,2.259944024339251289e-01,2.166765244893372189e-01,2.069556250077620452e-01,1.968451013596740629e-01,1.863806150783695048e-01,1.756208202621024617e-01,1.646455961390286549e-01,1.535524282225227688e-01,1.424516172917652534e-01,1.314609450954027925e-01,1.207003206490782077e-01,1.102868000240495860e-01,1.003302389133219202e-01,9.092971729747363618e-02,8.217077855597602898e-02,7.412345491355970539e-02,6.684100648260622723e-02,6.035927902434528453e-02,5.469658122781712734e-02,4.985399071458326142e-02,4.581601421467654256e-02,4.255154701756108659e-02,4.001509612908923236e-02,3.814824755034645215e-02,3.688136852935366972e-02,3.613553917818190103e-02,3.582470406502340915e-02,3.585802377840487110e-02,3.614239039300336936e-02,3.658505136761984466e-02,3.709626633520324290e-02,3.759190340668303737e-02,3.799586881528170534e-02,3.824225834498201637e-02,3.827712263185806263e-02,3.805975173116150911e-02,3.756340683595742191e-02,3.677545716142757715e-02,3.569691529229578747e-02,3.434140159677586540e-02,3.273360421398547465e-02,3.090733230163572251e-02,2.890328385032970779e-02,2.676666339348389087e-02,2.454478834190046768e-02,2.228481551567814550e-02,2.003170283891544945e-02,1.782649707524662161e-02,1.570500948492981746e-02
1.462281099763799010e-04,1.998482105816813258e-04,2.720516302218135797e-04,3.690793242704438516e-04,4.992900806167815866e-04,6.739012132937710706e-04,9.079753566376396606e-04,1.221710818749749839e-03,1.642087992670686076e-03,2.204905972607517153e-03,2.957206030929789529e-03,3.960016657963466059e-03,5.291265187193659736e-03,7.048584553828333987e-03,9.351607930410947567e-03,1.234320484183679643e-02,1.618899527190926363e-02,2.107441689802715817e-02,2.719865303275042362e-02,3.476489082163077698e-02,4.396669471352672443e-02,5.497075097425294793e-02,6.789683552835122649e-02,8.279651394195716718e-02,9.963269915695471823e-02,1.182626471011717917e-01,1.384271373010415584e-01,1.597483637175896309e-01,1.817384005177198059e-01,2.038190328617380809e-01,2.253523629006133899e-01,2.456801021232556947e-01,2.641680802922812266e-01,2.802514854055730420e-01,2.934759056396466503e-01,3.035294943286372393e-01,3.102625262616659496e-01,3.136921352667637608e-01,3.139918885462053555e-01,3.114677660024356420e-01,3.065237673570300192e-01,2.996215107460578064e-01,2.912386558868420572e-01,2.818307486951288632e-01,2.718002311980256547e-01,2.614750769202715541e-01,2.510980380728223826e-01,2.408260718520014720e-01,2.307383535583514833e-01,2.208505169952827418e-01,2.111324361390739535e-01,2.015269457761254546e-01,1.919673026039986907e-01,1.823917897522837617e-01,1.727545396688215107e-01,1.630322835673014836e-01,1.532272528261517386e-01,1.433668183657138551e-01,1.335006514403905553e-01,1.236962424420300771e-01,1.140335574832716803e-01,1.045994853218876752e-01,9.548256676714642066e-02,8.676833494007139824e-02,7.853544817930606381e-02,7.085267941588357932e-02,6.377674039173471254e-02,5.735086474735987677e-02,5.160404615999422684e-02,4.655082036932323142e-02,4.219148689505550220e-02,3.851268188271252807e-02,3.548823304326668981e-02,3.308024728403866077e-02,3.124039851509489985e-02,2.991139529685443374e-02,2.902861434406431990e-02,2.852188608594050101e-02,2.831741292128208895e-02,2.833979060458064608e-02,2.851409002971591611e-02,2.876794261899874236e-02,2.903355983500796600e-02,2.924960819338094306e-02,2.936285741072290276e-02,2.932952224311879616e-02,2.911622867706187279e-02,2.870055210609543175e-02,2.807109781702924953e-02,2.722712066452430066e-02,2.617770887723237447e-02,2.494058393026968648e-02,2.354059182924549826e-02,2.200797883572157276e-02,2.037655508232420407e-02,1.868185190203909898e-02,1.695937308220986720e-02,1.524302748902428561e-02,1.356381208871649223e-02,1.194879226813288890e-02
1.274560994308450890e-04,1.749360476196477475e-04,2.394412008196791775e-04,3.270698954936666685e-04,4.461974741501408730e-04,6.083559262922677005e-04,8.294275694128226510e-04,1.131229690322372488e-03,1.543561477160208849e-03,2.106761605590298791e-03,2.874776955639139764e-03,3.918663128859743369e-03,5.330321381410571373e-03,7.226125423214872778e-03,9.749914916793174513e-03,1.307465123205357044e-02,1.740187813646781878e-02,2.295804949903206688e-02,2.998682744739316827e-02,3.873666432082932543e-02,4.944339147417464719e-02,6.230814984059519085e-02,7.747177261174018059e-02,9.498758363526688120e-02,1.147953759916830879e-01,1.366999237882988993e-01,1.603575931515270336e-01,1.852743235596822080e-01,2.108173834738953367e-01,2.362418970697178766e-01,2.607313343693299368e-01,2.834491987078422426e-01,3.035973435771380236e-01,3.204750282908896408e-01,3.335322493649396369e-01,3.424112202881919309e-01,3.469711207801653430e-01,3.472932369063198577e-01,3.436660635463246738e-01,3.365524524838641174e-01,3.265430628563892879e-01,3.143018712773473222e-01,3.005101197352856301e-01,2.858147751608965947e-01,2.707864609623731322e-01,2.558901409342795863e-01,2.414699039641447775e-01,2.277473343035191222e-01,2.148314246632304081e-01,2.027369724171135812e-01,1.914079568773210949e-01,1.807424888797327656e-01,1.706164360575994909e-01,1.609035991315739544e-01,1.514911810175941231e-01,1.422901094373117403e-01,1.332404444330003990e-01,1.243125720260971206e-01,1.155051454436098052e-01,1.068408103523684621e-01,9.836068460925768975e-02,9.011840716905415716e-02,8.217437268323932176e-02,7.459056605970375287e-02,6.742623075269520150e-02,6.073445991754451712e-02,5.455969524831776746e-02,4.893605203802869202e-02,4.388635460634905672e-02,3.942175602075895929e-02,3.554182232752790133e-02,3.223497759172711669e-02,2.947922652652401956e-02,2.724309233211820794e-02,2.548672574036794924e-02,2.416315537591438856e-02,2.321965845751233076e-02,2.259923435678359502e-02,2.224216201022479258e-02,2.208761657826921118e-02,2.207531242039167951e-02,2.214713005426985001e-02,2.224867605833387788e-02,2.233071856092444865e-02,2.235043847326580527e-02,2.227243896722073957e-02,2.206946330314306023e-02,2.172278377344055711e-02,2.122224141363299871e-02,2.056593587737044412e-02,1.975958572695722670e-02,1.881559943266350107e-02,1.775191472987919933e-02,1.659067704981535135e-02,1.535683536464096076e-02,1.407673539164193931e-02,1.277678572327208342e-02,1.148226272187159724e-02,1.021630606292675027e-02,8.999140094075068139e-03
1.109585436297465559e-04,1.532140946595393898e-04,2.113167832070481740e-04,2.913918191290989167e-04,4.020809337955040552e-04,5.555982249788970866e-04,7.691827543973817852e-04,1.067048124678952837e-03,1.482922826591607027e-03,2.063246512683795508e-03,2.871026815456768563e-03,3.990259866869454164e-03,5.530669686005971857e-03,7.632328474820673087e-03,1.046949391557620672e-02,1.425276738831634041e-02,1.922848095372040392e-02,2.567411718494825440e-02,3.388861815525171656e-02,4.417670780090567767e-02,5.682687556101254089e-02,7.208345163051771420e-02,9.011419592620245611e-02,1.109759139318227950e-01,1.345816360571164827e-01,1.606736480106357168e-01,1.888069285787513096e-01,2.183471688262240695e-01,2.484864305483215074e-01,2.782776936737588191e-01,3.066872255640544220e-01,3.326611924881673898e-01,3.552006234061073631e-01,3.734371429198754533e-01,3.867011612814273414e-01,3.945746476552159376e-01,3.969222236732500853e-01,3.938968909653185468e-01,3.859198607410140314e-01,3.736371868991944512e-01,3.578587026753434763e-01,3.394866945145418313e-01,3.194425496102986095e-01,2.985992268595202837e-01,2.777259728810752004e-01,2.574495469718307561e-01,2.382337346590784055e-01,2.203765302222047417e-01,2.040223982819694970e-01,1.891857076271717675e-01,1.757808498411845000e-01,1.636546616570458690e-01,1.526174143146770412e-01,1.424696121852222774e-01,1.330229451500244686e-01,1.241147828628458710e-01,1.156164553986354510e-01,1.074361664310902187e-01,9.951772068797379300e-02,9.183634817397516581e-02,8.439282983084388234e-02,7.720693778753212611e-02,7.031095863489109088e-02,6.374381835808368146e-02,5.754610519019908582e-02,5.175610914047173994e-02,4.640686947702309800e-02,4.152414072426967306e-02,3.712514572895320858e-02,3.321797124920282396e-02,2.980146779474161442e-02,2.686553296759689596e-02,2.439168003173923169e-02,2.235381639529998576e-02,2.071917718785205864e-02,1.944937544852811881e-02,1.850154182575538403e-02,1.782953303920498458e-02,1.738519011226150046e-02,1.711962539917646561e-02,1.698451285646367798e-02,1.693335018551360427e-02,1.692265581219683929e-02,1.691305950829470606e-02,1.687024392756502483e-02,1.676569621837305929e-02,1.657723454638954444e-02,1.628928369739309975e-02,1.589288634373674930e-02,1.538545105603424286e-02,1.477025344369435611e-02,1.405572149862224958e-02,1.325454891423893597e-02,1.238268967236763086e-02,1.145829268133628093e-02,1.050063628112958038e-02,9.529119036458862796e-03,8.562355885534217795e-03,7.617418236108068792e-03,6.709244089591505714e-03
9.666210417930066101e-05,1.345877061247749754e-04,1.875593222222117875e-04,2.619003462623017866e-04,3.667727275963303716e-04,5.154476635792881300e-04,7.270711548015321938e-04,1.029051974160886083e-03,1.460192095476154674e-03,2.074644229538806853e-03,2.946705575471982551e-03,4.176329815103608199e-03,5.895053651318057572e-03,8.271791517625023266e-03,1.151766792320260864e-02,1.588876468141310269e-02,2.168541326804562103e-02,2.924653152499327030e-02,3.893756903582046291e-02,5.113096193387559052e-02,6.617865613345326470e-02,8.437724175319638587e-02,1.059274885740025818e-01,1.308914441587333832e-01,1.591515425466787648e-01,1.903771140362290615e-01,2.240040218402195027e-01,2.592326662284870631e-01,2.950481874019021955e-01,3.302644177879812681e-01,3.635902139782508646e-01,3.937136324280770538e-01,4.193965035697900245e-01,4.395698283865677736e-01,4.534195075803406083e-01,4.604524719049479797e-01,4.605353194243698711e-01,4.539008205508159310e-01,4.411216352801306528e-01,4.230546700789022951e-01,4.007630363004102136e-01,3.754250154269049844e-01,3.482404530831460510e-01,3.203445194986985767e-01,2.927369751723646329e-01,2.662323596160654504e-01,2.414333863788452605e-01,2.187267976459915941e-01,1.982984405046057386e-01,1.801626576269357849e-01,1.642003427754313016e-01,1.502001346237506474e-01,1.378980238104223210e-01,1.270118722927240373e-01,1.172687250884418830e-01,1.084241037189215828e-01,1.002735462426316559e-01,9.265741581707749586e-02,8.546042398472133983e-02,7.860744542189423978e-02,7.205710831980893794e-02,6.579441014497142137e-02,5.982330792209356041e-02,5.415992542602834220e-02,4.882674713602253025e-02,4.384795191697560962e-02,3.924588423478005822e-02,3.503856285224292433e-02,3.123807612589653976e-02,2.784969692007795150e-02,2.487155697688226211e-02,2.229474045507046087e-02,2.010368182676227494e-02,1.827677928234149041e-02,1.678715807463522156e-02,1.560353714151460972e-02,1.469116623291301382e-02,1.401280969149897720e-02,1.352975752338089754e-02,1.320284528478901480e-02,1.299346263987524903e-02,1.286452735642079799e-02,1.278139815767430701e-02,1.271269731631146857e-02,1.263101306050809849e-02,1.251345339896927852e-02,1.234202716976925268e-02,1.210383492484234762e-02,1.179106127314317673e-02,1.140077081305454140e-02,1.093452086420749689e-02,1.039781483254278646e-02,9.799429203545427167e-03,9.150653992235755277e-03,8.464490361882898509e-03,7.754849743362060566e-03,7.035796167262822927e-03,6.320868006664484388e-03,5.622507533840559978e-03,4.951617419241605145e-03
8.445880318305916141e-05,1.189097013132287320e-04,1.679691477788028842e-04,2.383257691616255105e-04,3.399099633518649693e-04,4.874176594446636692e-04,7.024423187737610305e-04,1.016374041920781093e-03,1.474215851319712499e-03,2.139423972793874640e-03,3.099786065980335552e-03,4.474194722459157517e-03,6.419944332265244309e-03,9.139879673473358737e-03,1.288837338253791438e-02,1.797474813395913418e-02,2.476245375444640490e-02,3.366214712034249629e-02,4.511690269373130197e-02,5.957819693681185025e-02,7.747212303806970402e-02,9.915650802680289755e-02,1.248711454261771103e-01,1.546850516555173527e-01,1.884462433889487754e-01,2.257406966248289293e-01,2.658675602118901748e-01,3.078370934704582340e-01,3.503960511422389290e-01,3.920824150225444837e-01,4.313077566794920603e-01,4.664615977637862065e-01,4.960285352531879632e-01,5.187062649116354063e-01,5.335115090864045451e-01,5.398615510151755226e-01,5.376216048034639927e-01,5.271122850895925138e-01,5.090763771005100136e-01,4.846091675208404892e-01,4.550609768937847188e-01,4.219235634993037110e-01,3.867133308954264770e-01,3.508636744844398914e-01,3.156365768449004849e-01,2.820601930190145268e-01,2.508952843250705222e-01,2.226296044649938022e-01,1.974962519860942733e-01,1.755099293295210028e-01,1.565141213157060784e-01,1.402323493161576340e-01,1.263176405239870570e-01,1.143958588569694845e-01,1.041002465540386557e-01,9.509614084840593839e-02,8.709615816974781988e-02,7.986707422658823052e-02,7.323015437697451280e-02,6.705685311226342038e-02,6.126169134602689470e-02,5.579383569975058382e-02,5.062853830121240295e-02,4.575922256433912622e-02,4.119066948804545047e-02,3.693349627107668509e-02,3.299993166799232436e-02,2.940077477584855659e-02,2.614336302527320993e-02,2.323035583781455846e-02,2.065914825941890520e-02,1.842175193753732218e-02,1.650501021090498149e-02,1.489104389761951482e-02,1.355785108248509785e-02,1.248000608200450397e-02,1.162941926926966928e-02,1.097613078567051190e-02,1.048911800265509356e-02,1.013709981170012736e-02,9.889321413105878894e-03,9.716302272573362764e-03,9.590528310949843205e-03,9.487068081384617338e-03,9.384092405493062866e-03,9.263278209119424692e-03,9.110080388218307762e-03,8.913860442690563907e-03,8.667867072894274924e-03,8.369071445724693761e-03,8.017867747908323517e-03,7.617657217326374679e-03,7.174340354710398611e-03,6.695746844247832050e-03,6.191035402793271074e-03,5.670096107541877650e-03,5.142985739236729213e-03,4.619422573749775753e-03,4.108361305709713231e-03,3.617661975616391374e-03
7.420935136923743750e-05,1.059834971797592813e-04,1.522677591653338793e-04,2.202715916984547919e-04,3.209249947257708209e-04,4.706908977190632113e-04,6.941133642853712909e-04,1.027295506328355446e-03,1.522490706441717231e-03,2.253938642881594349e-03,3.324965236312398507e-03,4.876175798164916926e-03,7.094292598644112019e-03,1.022082425494996900e-02,1.455932790849828913e-02,2.047958628053950583e-02,2.841665035424934677e-02,3.886250091724623851e-02,5.234817896903848355e-02,6.941473903137258816e-02,9.057236654608749604e-02,1.162484764386081670e-01,1.467274809846198236e-01,1.820869730343864512e-01,2.221369994603442366e-01,2.663705113568077820e-01,3.139335758516801356e-01,3.636231992600051921e-01,4.139184870873546251e-01,4.630474332432717999e-01,5.090872369813367326e-01,5.500912848913127595e-01,5.842315623746839881e-01,6.099420600021540073e-01,6.260473734341258645e-01,6.318615455008990134e-01,6.272452748404991896e-01,6.126145243346320379e-01,5.888995676764580134e-01,5.574596669619559242e-01,5.199639026577733691e-01,4.782523630734741849e-01,4.341934377792043831e-01,3.895522360962889730e-01,3.458824475025537026e-01,3.044498659091612325e-01,2.661910785390627088e-01,2.317062527633422797e-01,2.012811938820989743e-01,1.749313200921753242e-01,1.524590668038245667e-01,1.335163995137098880e-01,1.176653022877591631e-01,1.044309341717237494e-01,9.334420961083975121e-02,8.397251806582139988e-02,7.593890954874384092e-02,6.893120936275591581e-02,6.270316542515505520e-02,5.706993363999326302e-02,5.190007648288344488e-02,4.710590871514772765e-02,4.263358485437813983e-02,3.845387500240007167e-02,3.455417862960014769e-02,3.093201127853599866e-02,2.758997531788049892e-02,2.453208568310202495e-02,2.176124930585853975e-02,1.927767417320712384e-02,1.707799322366882963e-02,1.515491525370616516e-02,1.349724916455486909e-02,1.209018232187861717e-02,1.091572456141883321e-02,9.953254616118394071e-03,9.180125023412998020e-03,8.572295276646805032e-03,8.104971918079725834e-03,7.753239417105357509e-03,7.492668057967118156e-03,7.299885658646659663e-03,7.153099653172419366e-03,7.032555669418830493e-03,6.920918847608880514e-03,6.803565214724688684e-03,6.668772698830844649e-03,6.507804867569767608e-03,6.314885040215508991e-03,6.087063716537471046e-03,5.823987830283049866e-03,5.527585651149335630e-03,5.201685713019723288e-03,4.851591494062675904e-03,4.483635395403950605e-03,4.104735698522384880e-03,3.721978641011198467e-03,3.342244717069951451e-03,2.971894104267546084e-03,2.616521160216291313e-03
6.574678302490343841e-05,9.556701330479598730e-05,1.401012787481193734e-04,2.072160239608085734e-04,3.090420987214836110e-04,4.641061034742340009e-04,7.003371952134587741e-04,1.059181409849311792e-03,1.601043596143230177e-03,2.412215235575333218e-03,3.613312704174533388e-03,5.369024380508182273e-03,7.898633556694822574e-03,1.148635028178998825e-02,1.648997664311702485e-02,2.334590640407788881e-02,3.256801678479455397e-02,4.473777430483089068e-02,6.048299172812503927e-02,8.044327406317307305e-02,1.052213687812582760e-01,1.353213956421932818e-01,1.710771630915980113e-01,2.125762325473703751e-01,2.595876919994012377e-01,3.115032831802073132e-01,3.673021194040672621e-01,4.255483520834325017e-01,4.844286073110257163e-01,5.418319155562812961e-01,5.954696131924729352e-01,6.430270124917725205e-01,6.823334188080814044e-01,7.115332574880314231e-01,7.292394444355370098e-01,7.346511518081386694e-01,7.276217949672936225e-01,7.086689295258034038e-01,6.789249185889886240e-01,6.400345798736033487e-01,5.940123857501872218e-01,5.430761915577372312e-01,4.894763049133581401e-01,4.353378471099837443e-01,3.825311306647175003e-01,3.325798891517646738e-01,2.866115587352932037e-01,2.453483565216085238e-01,2.091334086508188084e-01,1.779831603380780947e-01,1.516559409550460313e-01,1.297267507981987866e-01,1.116597482120723073e-01,9.687208900556851243e-02,8.478522882355588042e-02,7.486213401203550832e-02,6.663076780509279151e-02,5.969557439294090329e-02,5.373944794785888435e-02,4.851891665681926785e-02,4.385511911242140348e-02,3.962274675146029712e-02,3.573860585813169732e-02,3.215092224775153301e-02,2.883004213616387895e-02,2.576081100961117448e-02,2.293664838279095911e-02,2.035517145306012590e-02,1.801513603036371258e-02,1.591443667761350406e-02,1.404891898696454186e-02,1.241178838880175120e-02,1.099343949323976742e-02,9.781569684659824002e-03,8.761476023155958734e-03,7.916463470419427689e-03,7.228314690187343482e-03,6.677787730200948450e-03,6.245118760124197116e-03,5.910513838190311481e-03,5.654617501196569293e-03,5.458947807297851416e-03,5.306288163865476894e-03,5.181026551293380772e-03,5.069433160802223025e-03,4.959868390718361400e-03,4.842914815592339571e-03,4.711429215594346680e-03,4.560513937339731420e-03,4.387410531187275163e-03,4.191322461654580812e-03,3.973177357015010916e-03,3.735342392425020433e-03,3.481308676465530525e-03,3.215361708211440361e-03,2.942254977743577991e-03,2.666902607804228897e-03,2.394104707189911863e-03,2.128316056004107056e-03,1.873465166671706541e-03
5.888066506188505838e-05,8.737791636148371029e-05,1.310467011900470573e-04,1.985189351284056582e-04,3.032843270367581532e-04,4.661631100222915318e-04,7.188026569148682531e-04,1.108470474980863523e-03,1.704402311083527905e-03,2.605891933934254522e-03,3.952152757555937694e-03,5.933716748434106694e-03,8.804747925837521152e-03,1.289513961437814375e-02,1.862066874117478468e-02,2.648886698060520101e-02,3.709774923503254135e-02,5.112426338925783048e-02,6.929945990337892103e-02,9.236808357968114003e-02,1.210316688108449001e-01,1.558762816622671077e-01,1.972886663967733656e-01,2.453674292223384790e-01,2.998385863059450096e-01,3.599867738503341741e-01,4.246141113302877024e-01,4.920376773016237326e-01,5.601335831101519336e-01,6.264308257412390946e-01,6.882519542998227768e-01,7.428909253498959808e-01,7.878124076751701343e-01,8.208523258226270158e-01,8.403975250418835863e-01,8.455236353699677743e-01,8.360745223405804394e-01,8.126735862965396295e-01,7.766655805515803035e-01,7.299962358868103962e-01,6.750444399956714303e-01,6.144268827874049821e-01,5.507972339852420518e-01,4.866609109093397723e-01,4.242227125770137719e-01,3.652788668991072130e-01,3.111584297946918265e-01,2.627125799384575910e-01,2.203450845089596488e-01,1.840736669207615750e-01,1.536104101339962891e-01,1.284495513560469926e-01,1.079526743611125966e-01,9.142384865987028542e-02,7.817014295728448581e-02,6.754567422992566184e-02,5.897960389388894054e-02,5.199008087331367933e-02,4.618702784448216331e-02,4.126695309789263355e-02,3.700279372113865484e-02,3.323132556538871407e-02,2.984006907753405241e-02,2.675500188163849880e-02,2.392984197475177960e-02,2.133723286276223083e-02,1.896185525740836167e-02,1.679529873986391336e-02,1.483242896839141213e-02,1.306895569378943057e-02,1.149991978026152634e-02,1.011885384269112058e-02,8.917416674524648867e-03,7.885347128917427964e-03,7.010623422715979956e-03,6.279746794500504561e-03,5.678093768907687897e-03,5.190299693110672803e-03,4.800648901721644643e-03,4.493455117179282268e-03,4.253420702950279526e-03,4.065966193357088872e-03,3.917522981154855817e-03,3.795782829809867670e-03,3.689898504407759967e-03,3.590630641848750835e-03,3.490437221588266279e-03,3.383503732867762081e-03,3.265714324240101205e-03,3.134566729296532107e-03,2.989036381687548358e-03,2.829397618346759635e-03,2.657011975623332911e-03,2.474095093358450251e-03,2.283474500393470330e-03,2.088350483219194795e-03,1.892071345365158508e-03,1.697932739705686981e-03,1.509008559883296460e-03,1.328018319779160437e-03
5.340212992426113643e-05,8.110071616283222264e-05,1.246219345259179660e-04,1.934361290842696770e-04,3.024939124359726219e-04,4.750521921011941688e-04,7.466769168438306108e-04,1.170736581299664349e-03,1.825684887763377078e-03,2.824348136039166873e-03,4.325253152569017573e-03,6.545727152446998917e-03,9.776054468052434651e-03,1.439339046403858603e-02,2.087344734523466361e-02,2.979726060054184791e-02,4.184974715785714366e-02,5.780644794315253215e-02,7.850500225055573322e-02,1.047987109296757424e-01,1.374911319339327531e-01,1.772530243085319313e-01,2.245259646229621486e-01,2.794202679347378426e-01,3.416179451333156702e-01,4.102936955129029561e-01,4.840677301728544268e-01,5.610030333451548890e-01,6.386562448499637501e-01,7.141858170363396541e-01,7.845140247507270681e-01,8.465317426144903790e-01,8.973278668926391033e-01,9.344201142573208552e-01,9.559617367793351583e-01,9.609000700315631915e-01,9.490677938101960143e-01,9.211956997542756209e-01,8.788454403167869078e-01,8.242706541977021795e-01,7.602234531989924271e-01,6.897291991343953432e-01,6.158549819746693688e-01,5.414960506546817598e-01,4.692000956718534455e-01,4.010426879450280091e-01,3.385595717215304501e-01,2.827341468621984433e-01,2.340324095592096476e-01,1.924735379376955324e-01,1.577224669433484883e-01,1.291910490209206563e-01,1.061362930588745784e-01,8.774709768762692375e-02,7.321420493257130291e-02,6.178124470206777796e-02,5.277732906501267363e-02,4.563348287361284478e-02,3.988622939873417983e-02,3.517198009903084455e-02,3.121567597175474093e-02,2.781658896304204862e-02,2.483349658665531812e-02,2.217073411404136413e-02,1.976600179481493094e-02,1.758030921022575230e-02,1.559008798036113329e-02,1.378128562705575530e-02,1.214514194219838347e-02,1.067531493413325858e-02,9.366038427552179566e-03,8.211034996613233647e-03,7.202959729639656083e-03,6.333201863929779386e-03,5.591916843036758185e-03,4.968198466974682939e-03,4.450329287431582272e-03,4.026068156225522804e-03,3.682948256824186608e-03,3.408568500324896371e-03,3.190867178023051171e-03,3.018370344608932356e-03,2.880409442811067335e-03,2.767303847375131905e-03,2.670504799238713166e-03,2.582697961679422411e-03,2.497862769009834109e-03,2.411287951027378182e-03,2.319544102491952631e-03,2.220415849039796691e-03,2.112797907137506197e-03,1.996560984034547511e-03,1.872394847990373765e-03,1.741636872882298091e-03,1.606094817877906427e-03,1.467872488776695390e-03,1.329206248883062907e-03,1.192319167327680418e-03,1.059298023389629393e-03,9.319965720135371624e-04
4.908989466454319122e-05,7.639604183946225203e-05,1.203002672838452271e-04,1.911421234683518557e-04,3.053683639266533876e-04,4.887114216962601225e-04,7.806965348001103323e-04,1.240832784904883582e-03,1.956825796726024275e-03,3.055056409158884295e-03,4.713366651938285558e-03,7.175850498353105421e-03,1.076884245542982128e-02,1.591663647846522020e-02,2.315469293417887417e-02,3.313729352014867235e-02,4.663592855872675247e-02,6.452434116280375553e-02,8.774632745263688527e-02,1.172633067401671197e-01,1.539804683298616195e-01,1.986529825505658486e-01,2.517771626168760490e-01,3.134752020405308093e-01,3.833856148999925662e-01,4.605740675971421449e-01,5.434801903183682503e-01,6.299146122581308349e-01,7.171165940916990333e-01,8.018763805832149760e-01,8.807183996898074740e-01,9.501327721052797992e-01,1.006834642099795785e+00,1.048025026264672199e+00,1.071624399407843820e+00,1.076451795407034950e+00,1.062327811701045510e+00,1.030088853845144259e+00,9.815108997407403502e-01,9.191522781181986623e-01,8.461346665230341513e-01,7.658882336036535454e-01,6.818896577071107412e-01,5.974204437787195010e-01,5.153680415962865746e-01,4.380848143472802492e-01,3.673113080691782217e-01,3.041619494280277114e-01,2.491644407646051440e-01,2.023395044405453813e-01,1.633055437560772261e-01,1.313930697774033651e-01,1.057558835426389982e-01,8.546930498662608233e-02,6.960947880995026205e-02,5.731133993601858490e-02,4.780574579404206492e-02,4.043834792390477856e-02,3.467394219448454579e-02,3.009041126826780474e-02,2.636614636163367789e-02,2.326422793576557804e-02,2.061586107866587164e-02,1.830476237373973580e-02,1.625348860859286704e-02,1.441213976043427721e-02,1.274947380209168375e-02,1.124622534662008885e-02,9.890295122907699979e-03,8.673439065431847242e-03,7.589102901538272335e-03,6.631094950245204275e-03,5.792847962467581602e-03,5.067078466025197632e-03,4.445702829926101961e-03,3.919910544496641759e-03,3.480326831248887164e-03,3.117219732399784116e-03,2.820722882963510800e-03,2.581055890605696464e-03,2.388731111804246257e-03,2.234739821540787999e-03,2.110713259705972178e-03,2.009055492787414215e-03,1.923045948998833906e-03,1.846910205369439771e-03,1.775858336440971821e-03,1.706090984349689817e-03,1.634774306193409899e-03,1.559986061256336560e-03,1.480636238756018663e-03,1.396366692598859571e-03,1.307435133845525829e-03,1.214589436586351132e-03,1.118938467122359550e-03,1.021825513996657163e-03,9.247098820833154738e-04,8.290613613727438724e-04,7.362711671047506489e-04,6.475816723482171865e-04
4.571727858556966174e-05,7.291212919623862344e-05,1.175293286309244810e-04,1.907615653861262210e-04,3.105125018781572897e-04,5.049125014994647245e-04,8.173080211373145434e-04,1.313119243017242576e-03,2.088941198274955457e-03,3.284160066180103008e-03,5.095131194627487876e-03,7.791583881735052522e-03,1.173435825554043806e-02,1.739284653981263903e-02,2.535965117767169721e-02,3.635908683869629177e-02,5.124540360667164535e-02,7.098620910299628661e-02,9.662676104318586312e-02,1.292318167774644533e-01,1.698037158277053427e-01,2.191783466634626143e-01,2.779044210394998604e-01,3.461156276293505529e-01,4.234091236112350054e-01,5.087466650125654910e-01,6.003956743715834765e-01,6.959260516806817787e-01,7.922742379495055776e-01,8.858791025950062403e-01,9.728853500920355835e-01,1.049400526706617098e+00,1.111782881116897936e+00,1.156930879976428628e+00,1.182542430733532601e+00,1.187313595152364787e+00,1.171052806128519697e+00,1.134696533399991880e+00,1.080224491640582762e+00,1.010484933953914810e+00,9.289513535300357727e-01,8.394393758052739463e-01,7.458157402970569949e-01,6.517298178862029889e-01,5.603926497693795250e-01,4.744202205244417159e-01,3.957481331819583947e-01,3.256156149102001907e-01,2.646091677327214176e-01,2.127510522804695603e-01,1.696154764682342442e-01,1.344556718232146619e-01,1.063274134218256950e-01,8.419820226532595542e-02,6.703547716227202524e-02,5.387116485848957026e-02,4.384312245046509404e-02,3.621631810651550210e-02,3.038789137252622535e-02,2.588065048338720683e-02,2.232931365901464835e-02,1.946312853728884851e-02,1.708763541989471307e-02,1.506745487877503634e-02,1.331119782372440843e-02,1.175897842113797324e-02,1.037257328827692789e-02,9.127998942167149868e-03,8.010141479276266380e-03,7.009030502404527130e-03,6.117368438618529282e-03,5.328978253021156818e-03,4.637896740521060129e-03,4.037904077607401554e-03,3.522336106738432806e-03,3.084071104824736859e-03,2.715617395670158560e-03,2.409253349416493224e-03,2.157188867280143956e-03,1.951729213546949792e-03,1.785429645325356356e-03,1.651234007190416136e-03,1.542593292906722620e-03,1.453561850056368093e-03,1.378869919844600894e-03,1.313971901956866332e-03,1.255070325876962408e-03,1.199116113391096063e-03,1.143786378374546907e-03,1.087441723000476951e-03,1.029065711739255437e-03,9.681898726856520915e-04,9.048081201291619359e-04,8.392848493542838821e-04,7.722610774197386950e-04,7.045628687029417692e-04,6.371158947939325806e-04,5.708693647141088474e-04,5.067317755559414732e-04,4.455200432040190063e-04
4.306004002772485253e-05,7.029817783673121838e-05,1.157539082438779345e-04,1.914081357992008039e-04,3.165043963782182839e-04,5.213715356593785809e-04,8.528518492138983768e-04,1.381764957033289158e-03,2.212816720247655182e-03,3.497249728102602966e-03,5.448286604710804969e-03,8.359001674100674170e-03,1.262164657814621171e-02,1.874665654400260381e-02,2.737862690544313332e-02,3.930558442249964396e-02,5.545706076895551284e-02,7.688604002207137522e-02,1.047300630542958855e-01,1.401478779279200504e-01,1.842301935971807081e-01,2.378863368109426779e-01,3.017127231684942901e-01,3.758535744677488077e-01,4.598685506037163417e-01,5.526250615899369611e-01,6.522341122427013360e-01,7.560469046533705439e-01,8.607247399066096927e-01,9.623871977749379747e-01,1.056833898566285068e+00,1.139824671626902708e+00,1.207393334010991470e+00,1.256163249973365037e+00,1.283629846612245107e+00,1.288377148842386966e+00,1.270202187654046799e+00,1.230131963647311366e+00,1.170330890099007259e+00,1.093910210860383314e+00,1.004662639297235760e+00,9.067535963115533892e-01,8.044038235569820339e-01,7.015965642654589107e-01,6.018365534293176333e-01,5.079790405768752626e-01,4.221366643808227015e-01,3.456619267163005271e-01,2.791947131812796412e-01,2.227587178722629513e-01,1.758881040160505393e-01,1.377660691379644642e-01,1.073595685414146239e-01,8.353844180562838839e-02,6.517170721315193593e-02,5.119808438033103537e-02,4.067134204612365272e-02,3.278356595464786138e-02,2.687085370708578932e-02,2.240639754524446914e-02,1.898564385824000680e-02,1.630748588473225971e-02,1.415450067317083893e-02,1.237427788059854671e-02,1.086303642247328158e-02,9.552052892717662058e-03,8.396950437064757897e-03,7.369601739358531793e-03,6.452249974361136224e-03,5.633406217012957608e-03,4.905102784525146829e-03,4.261138445879839379e-03,3.696021149266484878e-03,3.204382777920201757e-03,2.780700837377829502e-03,2.419210898955187830e-03,2.113930946701751256e-03,1.858745889116184729e-03,1.647519381399945113e-03,1.474212765782508070e-03,1.332999129451937961e-03,1.218365601754138605e-03,1.125200115354082217e-03,1.048860692827393096e-03,9.852264095935603112e-04,9.307298703307169321e-04,8.823715359063256762e-04,8.377166766660491077e-04,7.948761652637134374e-04,7.524727714778281420e-04,7.095950651141337421e-04,6.657414355320243667e-04,6.207570549870772758e-04,5.747668077825603431e-04,5.281072480977850366e-04,4.812605213725578215e-04,4.347928899575290921e-04,3.893000635004308552e-04,3.453609831679430682e-04,3.035010916237735300e-04
4.090465097974426502e-05,6.821884866903739234e-05,1.144412781672578207e-04,1.922284754544619238e-04,3.219708241737688731e-04,5.358771067297991852e-04,8.837769050080094679e-04,1.441101558789253121e-03,2.319482021901847404e-03,3.680281320852346952e-03,5.751116867793240606e-03,8.844983001895446312e-03,1.338093134962970929e-02,1.990441154910020660e-02,2.910437190120419848e-02,4.182318656723764405e-02,5.905460124992353149e-02,8.192442307119267297e-02,1.116489061974830638e-01,1.494669686838767941e-01,1.965446966194633605e-01,2.538540622114345835e-01,3.220321825401508686e-01,4.012322847555537808e-01,4.909820773525834792e-01,5.900685420516756929e-01,6.964693238550074827e-01,8.073491544894568772e-01,9.191347307793704680e-01,1.027673374212701773e+00,1.128470442339265745e+00,1.216989245375755146e+00,1.288986923421310715e+00,1.340852212202503946e+00,1.369907819673775062e+00,1.374642157264039488e+00,1.354842439184704928e+00,1.311612754364632094e+00,1.247274890939246150e+00,1.165164220487171720e+00,1.069345528161477432e+00,9.642823798607332852e-01,8.544972554444094648e-01,7.442579821990090716e-01,6.373196333342060482e-01,5.367414028015555783e-01,4.447868309377655538e-01,3.629049741435068643e-01,2.917812259585829127e-01,2.314405130948301026e-01,1.813828846998468136e-01,1.407318726066736914e-01,1.083787660914140860e-01,8.311021533180577847e-02,6.371141513865644090e-02,4.904171747724032915e-02,3.808330643386820258e-02,2.996624290057922982e-02,2.397469767819419145e-02,1.953967812433105369e-02,1.622326275933803214e-02,1.369857517918299933e-02,1.172871759727152005e-02,1.014685402814530756e-02,8.838722605661729348e-03,7.728138053364848846e-03,6.765537450407989838e-03,5.919307308142072142e-03,5.169470107463209133e-03,4.503260191296367017e-03,3.912141492108657699e-03,3.389879968050109847e-03,2.931358074685029222e-03,2.531892041103748006e-03,2.186877041439242060e-03,1.891637378843160668e-03,1.641398424798109525e-03,1.431325797164630532e-03,1.256597250325320290e-03,1.112486144412788789e-03,9.944440304080540399e-04,8.981753199478377265e-04,8.197003093643348516e-04,7.554047813924358833e-04,7.020755497736803864e-04,6.569219927942205120e-04,6.175840626592266720e-04,5.821275891793754181e-04,5.490279870757605379e-04,5.171437528000277914e-04,4.856813982135490095e-04,4.541536976966510501e-04,4.223332980050322687e-04,3.902038322469219222e-04,3.579106721268186862e-04,3.257133368877926090e-04,2.939413552682135396e-04,2.629550616736793934e-04,2.331124227553250505e-04,2.047425655992824421e-04
3.905645403132500162e-05,6.636883929265964847e-05,1.131070388585803615e-04,1.924475385183753960e-04,3.256658572011774376e-04,5.464245428729578484e-04,9.068664124246587563e-04,1.485997420945559411e-03,2.400820088937525871e-03,3.820551673406829152e-03,5.983985460772999442e-03,9.219585999082463221e-03,1.396722298609591288e-02,2.079954981612915782e-02,3.043997855946336747e-02,4.377311740732285628e-02,6.184261720389606226e-02,8.583088359282832480e-02,1.170153486298920464e-01,1.566972400790289099e-01,2.061012257549239557e-01,2.662479581325049582e-01,3.378061693376182562e-01,4.209360528816395441e-01,5.151404339434501045e-01,6.191437141036556513e-01,7.308197986388719203e-01,8.471883827073452000e-01,9.644937024059312414e-01,1.078371347175126616e+00,1.184097844667197030e+00,1.276905938236652549e+00,1.352337652697380710e+00,1.406599331798499053e+00,1.436879461755150356e+00,1.441592220581717321e+00,1.420517335074388043e+00,1.374819012019758535e+00,1.306941611356573940e+00,1.220395000063578372e+00,1.119455748576019927e+00,1.008819482366846820e+00,8.932435257124233807e-01,7.772171934613527622e-01,6.646903914966811877e-01,5.588810392045794329e-01,4.621701204947195607e-01,3.760818366254338740e-01,3.013369930028717003e-01,2.379614613831841918e-01,1.854287142759169227e-01,1.428158052091043073e-01,1.089550747662466484e-01,8.256835051620492472e-02,6.237549299818869603e-02,4.717397141265846500e-02,3.589013103689733808e-02,2.760562460334217011e-02,2.156406868767980073e-02,1.716349774392990010e-02,1.393988330597547946e-02,1.154616336718687804e-02,9.730164916468194217e-03,8.313720356049368945e-03,7.174322188607457247e-03,6.229905846229381698e-03,5.426817307007507536e-03,4.730691409682003142e-03,4.119799113936302611e-03,3.580371469504940729e-03,3.103431901326757399e-03,2.682731881097259654e-03,2.313463195436990354e-03,1.991497021616352430e-03,1.712967389240637253e-03,1.474071029669496435e-03,1.270997010143039459e-03,1.099929529088046302e-03,9.570880702574615598e-04,8.387830467587073209e-04,7.414740789702586052e-04,6.618236978256873942e-04,5.967426983765985625e-04,5.434253987397762728e-04,4.993742344857862768e-04,4.624137953734726563e-04,4.306948142705723762e-04,4.026888812285400678e-04,3.771748531295606257e-04,3.532180959352997757e-04,3.301438421890237336e-04,3.075060661106100214e-04,2.850533602046734444e-04,2.626933270995275723e-04,2.404569673988979979e-04,2.184644432683502759e-04,1.968934299307615785e-04,1.759510420425582468e-04,1.558500541280975597e-04,1.367898433222046657e-04
3.734703647401386593e-05,6.448626460091860118e-05,1.113391200133207457e-04,1.914110680086950577e-04,3.265449295905508667e-04,5.513430550474589242e-04,9.194526117573483025e-04,1.512214079656839941e-03,2.450148876072598663e-03,3.907631248586049266e-03,6.130804922830987089e-03,9.458322405657750356e-03,1.434377666802981802e-02,2.137776728149525657e-02,3.130645489153699446e-02,4.504233717849688567e-02,6.366203039854212431e-02,8.838533467801179544e-02,1.205301061647350708e-01,1.614387435568586937e-01,2.123746142251151658e-01,2.743905104979171283e-01,3.481760005456362994e-01,4.338957883720974684e-01,5.310361163169678989e-01,6.382798396930516871e-01,7.534320645572119002e-01,8.734163485317777420e-01,9.943560240733307909e-01,1.111746419500020622e+00,1.220712516590607422e+00,1.316334412355793626e+00,1.394011779077438007e+00,1.449830349559478870e+00,1.480889977083498454e+00,1.485556013940479536e+00,1.463603641478799622e+00,1.416237362871382466e+00,1.345983252125270813e+00,1.256467316996773942e+00,1.152106983505384985e+00,1.037752156161229067e+00,9.183162560955470122e-01,7.984358008463018352e-01,6.821901785467937573e-01,5.729027945038338565e-01,4.730326835400793239e-01,3.841539822287282635e-01,3.070110122291974108e-01,2.416302316328653443e-01,1.874673741163623009e-01,1.435684839585200656e-01,1.087265542227708326e-01,8.162010769984040515e-02,6.092530764882779504e-02,4.539817225451837218e-02,3.392757311913387891e-02,2.556259885065742532e-02,1.951950491773292440e-02,1.517399924426531162e-02,1.204429840744327546e-02,9.769540724192341680e-03,8.087046755550197571e-03,6.810801168534937750e-03,5.812543282393441840e-03,5.006075312424662985e-03,4.334847374459121876e-03,3.762537301076516408e-03,3.266170542267540864e-03,2.831273498011366123e-03,2.448578328286660742e-03,2.111862787599612639e-03,1.816589204400691866e-03,1.559086063726242491e-03,1.336085006858038753e-03,1.144482037932128844e-03,9.812342562840793442e-04,8.433341946739923668e-04,7.278251782723111707e-04,6.318353767657329490e-04,5.526174334829684178e-04,4.875863223457286991e-04,4.343515871349554842e-04,3.907421859594078324e-04,3.548233532143882265e-04,3.249055621058463596e-04,2.995460484515371970e-04,2.775435765336745834e-04,2.579272673530134518e-04,2.399404084627027988e-04,2.230202391279818906e-04,2.067747576086727734e-04,1.909576245016680787e-04,1.754422304749818644e-04,1.601959524111706476e-04,1.452555360444000073e-04,1.307044169230825524e-04,1.166526307155944103e-04,1.032197781727911269e-04,9.052131192112367834e-05
3.564013896711720303e-05,6.236353422603049107e-05,1.088174972341611111e-04,1.886207569408884343e-04,3.238264938841508471e-04,5.494020069513157667e-04,9.195967501235245570e-04,1.516705746434516980e-03,2.462710914652990399e-03,3.934150305171564208e-03,6.180276729472304782e-03,9.544078111228058992e-03,1.448501405070407380e-02,2.160138277376466576e-02,3.164912957079829559e-02,4.555277176662454741e-02,6.440315320953630962e-02,8.943622840503506755e-02,1.219873246688677748e-01,1.634166326224910648e-01,2.150042274463359881e-01,2.778167401184581942e-01,3.525526369797529758e-01,4.393783877857154740e-01,5.377727884953195092e-01,6.464003503384008198e-01,7.630359451703920826e-01,8.845609799696690922e-01,1.007045858152361584e+00,1.125924580877750936e+00,1.236255951066705716e+00,1.333053504952212531e+00,1.411654969523520986e+00,1.468093765375691362e+00,1.499431549637999295e+00,1.504013018402531543e+00,1.481612185570284179e+00,1.433452105991702918e+00,1.362095604223021894e+00,1.271220550709170061e+00,1.165307064596026843e+00,1.049273598524592011e+00,9.281028631705858789e-01,8.064966858322342169e-01,6.885918917459952215e-01,5.777586784926703745e-01,4.764907035138690183e-01,3.863842449440066940e-01,3.081940205403856381e-01,2.419466657408087251e-01,1.870898939870956901e-01,1.426557554627892743e-01,1.074194501693382098e-01,8.003984650460081729e-02,5.917317539995564646e-02,4.355642493252423475e-02,3.206112276641270159e-02,2.372113416883683129e-02,1.773976596083057244e-02,1.348200245981018980e-02,1.045738081258761748e-02,8.298153256314763637e-03,6.736273476955322546e-03,5.581612775743725018e-03,4.702812053914970369e-03,4.011387054135621272e-03,3.449147171387091215e-03,2.978642758361559843e-03,2.576180927803961660e-03,2.226897362399104900e-03,1.921396747182520411e-03,1.653540836049075240e-03,1.419044779158585689e-03,1.214622655125025029e-03,1.037493318996853681e-03,8.851142660808868122e-04,7.550541676781063289e-04,6.449457721203658662e-04,5.524823644282002635e-04,4.754353267832191546e-04,4.116796002115952419e-04,3.592196367443133403e-04,3.162119441311495613e-04,2.809823954129602830e-04,2.520376609636435037e-04,2.280707806131595920e-04,2.079612523708536495e-04,1.907702071174300772e-04,1.757313433432880067e-04,1.622383547258166600e-04,1.498296163165923028e-04,1.381709097326952495e-04,1.270369644541839639e-04,1.162925686060007751e-04,1.058739556585306708e-04,9.577110197618180019e-05,8.601147512524188468e-05,7.664565803370464257e-05,6.773514558628964766e-05,5.934247586524752483e-05
3.383550363857976498e-05,5.985458007260302228e-05,1.053274793726978714e-04,1.837581840250695543e-04,3.170342990001014257e-04,5.398841709568648990e-04,9.062136385797315251e-04,1.497827174779991230e-03,2.436013843533223634e-03,3.896346580935565462e-03,6.126756131846003428e-03,9.468454060059184468e-03,1.437856469066179678e-02,2.145238980408710819e-02,3.144213184797901850e-02,4.526777052286502095e-02,6.401482990084859936e-02,8.891326268405402855e-02,1.212919253087458710e-01,1.625044136137392958e-01,2.138245692720099345e-01,2.763137666423347572e-01,3.506669068127006295e-01,4.370493432270244338e-01,5.349419266853910893e-01,6.430149861674996359e-01,7.590533344755991951e-01,8.799524790880299818e-01,1.001800728282156161e+00,1.120053018297171965e+00,1.229790948357465830e+00,1.326051228309336194e+00,1.404193468479418616e+00,1.460270000094563203e+00,1.491356905892621487e+00,1.495807655467525032e+00,1.473398701478728201e+00,1.425349086429342105e+00,1.354211632930687470e+00,1.263649198875012925e+00,1.158123254018347037e+00,1.042531567551015170e+00,9.218357807278713123e-01,8.007177837175231128e-01,6.832968419338401045e-01,5.729288467759305892e-01,4.720968706323456776e-01,3.823903996094821234e-01,3.045608859356568332e-01,2.386347076556877556e-01,1.840616584056147809e-01,1.398774808690863569e-01,1.048619831318449158e-01,7.767895077491597522e-02,5.698936205942145561e-02,4.153444530476137209e-02,3.018926101182715580e-02,2.199041830885912693e-02,1.614319041907060631e-02,1.201382723963801379e-02,9.112546096744684326e-03,7.071826022565542991e-03,5.623525849370938044e-03,4.577220390885388193e-03,3.801154120333378843e-03,3.206427049917295966e-03,2.734473177780387919e-03,2.347548264423759013e-03,2.021769736705759848e-03,1.742199373271326006e-03,1.499484469384981117e-03,1.287639276367967068e-03,1.102629713121163185e-03,9.415042222888340582e-04,8.018833906556219800e-04,6.816771708500501438e-04,5.789411848951144359e-04,4.918143747975711570e-04,4.185015681641500018e-04,3.572787272560293140e-04,3.065078004609677166e-04,2.646538090905618573e-04,2.303002650244963950e-04,2.021610520358393330e-04,1.790880666396243916e-04,1.600745570760818914e-04,1.442544416343548373e-04,1.308980624131076743e-04,1.194049147887833224e-04,1.092939290381559340e-04,1.001918907792271311e-04,9.182058110016093561e-05,8.398319872673440790e-05,7.655059544073547256e-05,6.944781136946093106e-05,6.264133834124931686e-05,5.612746809779330803e-05,4.992200014289442509e-05,4.405149517841197571e-05,3.854616925160227588e-05
3.187025228126527340e-05,5.687763357957889516e-05,1.007650549325851479e-04,1.766947499006916186e-04,3.060153258182358657e-04,5.226172879723202120e-04,8.791259135134029670e-04,1.455424954762550138e-03,2.369980876151726087e-03,3.794308392338013348e-03,5.970637355829920209e-03,9.232365066656464392e-03,1.402617955805532737e-02,2.093382437712805466e-02,3.069040195856096581e-02,4.419500714285490295e-02,6.250854616615295067e-02,8.683309733445181144e-02,1.184674111350326048e-01,1.587344144629877774e-01,2.088790671198386406e-01,2.699386329589918421e-01,3.425921370993569304e-01,4.270009593958052352e-01,5.226573663853055773e-01,6.282613311369165121e-01,7.416472343518075716e-01,8.597801741497917982e-01,9.788362446534962791e-01,1.094372477860840576e+00,1.201581058521639100e+00,1.295610415019544659e+00,1.371924766935353146e+00,1.426665653545577728e+00,1.456975537591601144e+00,1.461245744084173737e+00,1.439258777211102958e+00,1.392207467645903085e+00,1.322588577999493253e+00,1.233984046251998645e+00,1.130756513484077352e+00,1.017695101772505106e+00,8.996513034247802798e-01,7.812030294845970779e-01,6.663780479095716691e-01,5.584577084094910493e-01,4.598699291430484726e-01,3.721688785786943510e-01,2.960892722502039276e-01,2.316567964655305012e-01,1.783332723695560396e-01,1.351755555035324963e-01,1.009901234901292993e-01,7.446987304898979032e-02,5.430482313429745023e-02,3.926333975405414678e-02,2.824454847748653075e-02,2.030546199773138397e-02,1.466796815508437588e-02,1.071134534410328985e-02,7.955662450768546251e-03,6.040584115642070456e-03,4.703022057012722947e-03,3.755972637953470215e-03,3.069908536403871506e-03,2.557325485043251707e-03,2.160503333043933393e-03,1.842204944402915960e-03,1.578866508279495916e-03,1.355781944137286060e-03,1.163808608175812562e-03,9.971861253988611659e-04,8.521395227224777373e-04,7.260158658711971099e-04,6.167717107795582651e-04,5.226835515506915355e-04,4.421950457379155612e-04,3.738448069280583016e-04,3.162393028608596608e-04,2.680492139025033704e-04,2.280164995106868486e-04,1.949649662491163078e-04,1.678104872219284731e-04,1.455689946683125040e-04,1.273614907969958341e-04,1.124159401892555512e-04,1.000662331342259547e-04,8.974857103985996501e-05,8.099569716223411727e-05,7.342942024644931150e-05,6.675187771959819976e-05,6.073596994055022739e-05,5.521537250729795595e-05,5.007450135489302111e-05,4.523876565620187459e-05,4.066539654509810671e-05,3.633508612110145802e-05,3.224461256982082125e-05,2.840056584673081877e-05,2.481422711974197901e-05
2.971764414468533173e-05,5.341323604850003315e-05,9.513367203756884904e-05,1.674864321608234864e-04,2.909312236918455068e-04,4.979601073726584899e-04,8.390413925099002388e-04,1.390801071394603006e-03,2.266892751191523434e-03,3.631883274985907555e-03,5.718211745844755702e-03,8.845822742372529482e-03,1.344340394549724260e-02,2.006927996828787933e-02,2.942898369813499310e-02,4.238546513293928869e-02,5.995699891054836334e-02,8.329737257074165679e-02,1.136531694555383137e-01,1.522941763894136713e-01,2.004153304095565025e-01,2.590121844547545460e-01,3.287363925948100785e-01,4.097426869833593055e-01,5.015434766407744771e-01,6.028906034542732550e-01,7.117049848824145153e-01,8.250730814931452883e-01,9.393239747254933381e-01,1.050192521147900404e+00,1.153063407979360688e+00,1.243279408087489823e+00,1.316486551177475484e+00,1.368981193710893773e+00,1.398020677435467096e+00,1.402061345363359246e+00,1.380895156226835896e+00,1.335668051581131666e+00,1.268777798465253737e+00,1.183663960858870601e+00,1.084515581280881102e+00,9.759311008615882965e-01,8.625687858574717648e-01,7.488241879097592424e-01,6.385646204707960960e-01,5.349407136152672937e-01,4.402836643400430683e-01,3.560857190027607588e-01,2.830522912596774576e-01,2.212079672393607865e-01,1.700358667320958361e-01,1.286301954265507419e-01,9.584466222176774020e-02,7.042382131956220759e-02,5.110936724567840400e-02,3.671813288276738751e-02,2.619242898213422835e-02,1.862611052064047645e-02,1.327130861653820840e-02,9.531267442005598306e-03,6.944428283369293194e-03,5.164100130159341231e-03,3.937019461163437234e-03,3.083045525688291044e-03,2.477304146921766471e-03,2.035357011400216066e-03,1.701453501203180861e-03,1.439599934433474131e-03,1.227018027963484035e-03,1.049515600333628942e-03,8.983161066550772629e-04,7.679556339277906476e-04,6.549321413224129702e-04,5.568665958582341095e-04,4.720009832262599928e-04,3.989107874063520763e-04,3.363494020688742353e-04,2.831706820103564075e-04,2.382957031103837930e-04,2.007030130963671907e-04,1.694301516052955467e-04,1.435795105547647951e-04,1.223248048818234796e-04,1.049163007881334783e-04,9.068401642779685458e-05,7.903869636036423994e-05,6.947066881898075893e-05,6.154684556266817928e-05,5.490618872250000858e-05,4.925398775006491783e-05,4.435528423811120879e-05,4.002776437994533400e-05,3.613441364693850292e-05,3.257619826492584044e-05,2.928500419290321489e-05,2.621702703263263589e-05,2.334676621069278302e-05,2.066173482415838416e-05,1.815795409266513215e-05,1.583626010277311302e-05
2.738335496209550227e-05,4.949771204936003686e-05,8.853282890785183433e-05,1.563539799269351408e-04,2.722242708527128721e-04,4.667445874341850649e-04,7.874562674014451338e-04,1.306553162600331648e-03,2.131128260593530190e-03,3.416263363914876210e-03,5.381016285111619828e-03,8.326929259369789810e-03,1.265805010707546190e-02,1.890062954837495521e-02,2.771968658971850005e-02,3.992863333788524566e-02,5.648730326843528354e-02,7.848327524207270034e-02,1.070916041449554434e-01,1.435092156215792281e-01,1.888624699882145708e-01,2.440897618985167494e-01,3.098052841712563010e-01,3.861547711355710066e-01,4.726784280699030116e-01,5.681994635959792816e-01,6.707577675780693749e-01,7.776065882211330438e-01,8.852852042605587890e-01,9.897727452345049803e-01,1.086718280503562228e+00,1.171731430995549772e+00,1.240707781937619325e+00,1.290156083468570136e+00,1.317491121930387532e+00,1.321258104669905009e+00,1.301261445718448373e+00,1.258582070985028833e+00,1.195481096447044811e+00,1.115201808556376850e+00,1.021694064204999641e+00,9.192936624901340004e-01,8.123927661472926109e-01,7.051358095447624041e-01,6.011691599419064502e-01,5.034634463846164865e-01,4.142166806365581433e-01,3.348358483209840641e-01,2.659860378902901834e-01,2.076903754352135978e-01,1.594614095476913351e-01,1.204449355744618422e-01,8.955992491388285737e-02,6.562235947529349023e-02,4.744545531360491730e-02,3.391321097695374626e-02,2.402788183093415228e-02,1.693457124620295282e-02,1.192759397027577835e-02,8.443739107801131322e-03,6.047279939080991810e-03,4.410821089622887770e-03,3.295096312118349791e-03,2.529834367768674357e-03,1.996930772000997042e-03,1.616469360452883622e-03,1.335647590947336774e-03,1.120355837637842513e-03,9.490072829145894092e-04,8.081690549083179846e-04,6.895675059151601134e-04,5.880990148817518857e-04,5.005494784201720577e-04,4.247962054880767124e-04,3.593274806078268079e-04,3.029646165332662480e-04,2.547088560087512154e-04,2.136625347913123510e-04,1.789925979841800461e-04,1.499169812502153785e-04,1.257023470753878766e-04,1.056666314178691360e-04,8.918285403036299076e-05,7.568240292388261122e-05,6.465700200827149350e-05,5.565911875037107842e-05,4.830085573828221831e-05,4.225151011515936142e-05,3.723404423925393252e-05,3.302072724165029482e-05,2.942820111412999855e-05,2.631220759315892896e-05,2.356218900922035621e-05,2.109595011979636695e-05,1.885453996091486734e-05,1.679748355381376282e-05,1.489846337924465360e-05,1.314152048080624244e-05,1.151781566708770714e-05,1.002296349798491937e-05
2.489969763632820252e-05,4.521285844079370333e-05,8.113981102994221694e-05,1.436508949448205843e-04,2.505619284861573186e-04,4.301812131979987179e-04,7.264958453663602090e-04,1.206310874784652853e-03,1.968734954828143396e-03,3.157298120152887428e-03,4.974752144163260142e-03,7.700205139397278339e-03,1.170765680523369601e-02,1.748423404599657241e-02,2.564552728377104615e-02,3.694450146465714374e-02,5.226967129553404534e-02,7.262781202763975152e-02,9.910667946115926663e-02,1.328142743558535510e-01,1.747932672762390616e-01,2.259123119609495745e-01,2.867399209163299378e-01,3.574109161073287799e-01,4.374995330045526321e-01,5.259162283123023363e-01,6.208462838353522306e-01,7.197467353526275646e-01,8.194136579516857477e-01,9.161245782452723807e-01,1.005851495885283553e+00,1.084529936339929002e+00,1.148360221332459075e+00,1.194110392974277568e+00,1.219387353883391034e+00,1.222844600253869096e+00,1.204301446798199837e+00,1.164759040553112079e+00,1.106311176444400468e+00,1.031960959004547318e+00,9.453656385688103958e-01,8.505397594293430119e-01,7.515500215306987197e-01,6.522337380965096409e-01,5.559670591802795547e-01,4.655004726659495162e-01,3.828691047690740423e-01,3.093756708377959352e-01,2.456359554531783451e-01,1.916713314119864175e-01,1.470303979328745070e-01,1.109221378286768672e-01,8.234547102634651172e-02,6.020390943133122064e-02,4.339835442682230676e-02,3.089519948420343942e-02,2.177029407201964625e-02,1.523172252415734389e-02,1.062570731877098690e-02,7.430383327727494054e-03,5.241930242736942205e-03,3.756849879579708153e-03,2.753270396422988556e-03,2.073237654196683714e-03,1.607139582025485800e-03,1.280767160705505690e-03,1.045062029279708029e-03,8.683196521856781759e-04,7.304747817643960023e-04,6.190534354171639640e-04,5.263962204719525905e-04,4.478119905315408491e-04,3.803872622396289806e-04,3.222421168751284808e-04,2.720802660017684741e-04,2.289268067207418948e-04,1.919819108104663314e-04,1.605437031067671687e-04,1.339708465756359751e-04,1.116668216211149186e-04,9.307525050653879723e-05,7.768019617959763361e-05,6.500812667437750160e-05,5.462985360740285580e-05,4.616167170702139910e-05,3.926542998131250220e-05,3.364752914106588887e-05,2.905696892579403033e-05,2.528262393012139440e-05,2.214994194902425385e-05,1.951725388133034305e-05,1.727186915743314003e-05,1.532611086288420278e-05,1.361342290802947469e-05,1.208465905082519474e-05,1.070464096861206212e-05,9.449050305253395331e-06,8.301698072313327080e-06,7.252194393909361111e-06,6.294022857435399091e-06
2.231842598455337242e-05,4.067301695275615618e-05,7.318667538447038259e-05,1.298229233581404409e-04,2.267664915528538308e-04,3.897386058672432443e-04,6.587117206001818224e-04,1.094399683849573346e-03,1.786881236322149279e-03,2.866616552961598167e-03,4.517902721070388150e-03,6.994451489275635252e-03,1.063624053045881916e-02,1.588609242694075455e-02,2.330361788833778050e-02,3.357331753218881915e-02,4.750292335281469658e-02,6.600768077007110324e-02,9.007645612123493795e-02,1.207165195392600754e-01,1.588757449785951348e-01,2.053437985110589670e-01,2.606374732059388299e-01,3.248792739104189864e-01,3.976820513282372516e-01,4.780551868667097248e-01,5.643487771667983210e-01,6.542508456451031629e-01,7.448485194633900353e-01,8.327575088480786425e-01,9.143157813429468872e-01,9.858281769695815822e-01,1.043840313625989502e+00,1.085413994879960153e+00,1.108373719642492095e+00,1.111495543090893934e+00,1.094615467800715836e+00,1.058643997668043513e+00,1.005485048125207115e+00,9.378692540003549238e-01,8.591219753876125909e-01,7.728934017552167024e-01,6.828811221661850173e-01,5.925741483108205587e-01,5.050421835434659723e-01,4.227860591261742851e-01,3.476561767684881454e-01,2.808370037397354135e-01,2.228884190857940428e-01,1.738298277231044298e-01,1.332507505208833098e-01,1.004318887897682477e-01,7.446291409894034707e-02,5.434671420613204629e-02,3.908376823105273734e-02,2.773407099473088402e-02,1.945711186103183526e-02,1.353259310363705108e-02,9.365805465172197253e-03,6.481976001086988542e-03,4.513667542596806748e-03,3.184672287147386101e-03,2.293019591464021730e-03,1.694880027793325104e-03,1.290407433561636171e-03,1.011976832244890342e-03,8.148637515581270193e-04,6.701549725772480747e-04,5.595514918929627053e-04,4.716858485165728219e-04,3.995947207913360917e-04,3.390369323627936580e-04,2.874074086652939823e-04,2.430569751394883479e-04,2.048796496798277998e-04,1.720707402259981703e-04,1.439905985454125695e-04,1.200915957644188358e-04,9.988155627078677259e-05,8.290729444731661049e-05,6.874857609703948467e-05,5.701697538555820799e-05,4.735659899785968038e-05,3.944511259831442676e-05,3.299433523399931549e-05,2.775012281481305129e-05,2.349150087389268081e-05,2.002912413672738415e-05,1.720319100094100644e-05,1.488095602768001516e-05,1.295398025138167434e-05,1.133524689378429245e-05,9.956253872012968322e-06,8.764176862272805607e-06,7.719178888558216102e-06,6.791925080112849840e-06,5.961344726084746315e-06,5.212667294954721567e-06,4.535744911112276344e-06,3.923661135844093278e-06
1.970289247290042448e-05,3.601094376538932056e-05,6.493503620984103465e-05,1.153636039102381284e-04,2.017377951163759077e-04,3.470111257589657294e-04,5.868585642929863592e-04,9.754707428755181363e-04,1.593252846815973109e-03,2.556660069928909547e-03,4.030210627735331813e-03,6.240393623260638740e-03,9.490714000965820227e-03,1.417649449938786221e-02,2.079732445670670268e-02,2.996429340756227855e-02,4.239851064452192231e-02,5.891707243478339073e-02,8.040280283309435283e-02,1.077549556711672879e-01,1.418197543532591365e-01,1.833021721943299265e-01,2.326635587496007351e-01,2.900132397556858810e-01,3.550055182316249613e-01,4.267559167410876486e-01,5.037913466985594058e-01,5.840476213609913092e-01,6.649240784570084051e-01,7.433991844318473818e-01,8.162034529827341123e-01,8.800378442601913820e-01,9.318183144043752364e-01,9.689217056935366390e-01,9.894058349536327679e-01,9.921781109640183116e-01,9.770923057044188509e-01,9.449615447398015400e-01,8.974859039379928793e-01,8.371035777866392413e-01,7.667837441001171817e-01,6.897855888589862206e-01,6.094106045339018340e-01,5.287740421169975225e-01,4.506167602064308775e-01,3.771716861892860373e-01,3.100909958288896595e-01,2.504322671060293382e-01,1.986953931691461672e-01,1.548976806520606098e-01,1.186725876186621037e-01,8.937781452980968211e-02,6.620047265897111011e-02,4.825016123295536308e-02,3.463430434768053484e-02,2.451344389732403387e-02,1.713693946172573437e-02,1.186147216247018452e-02,8.155850034015194386e-03,5.595967302721967587e-03,3.853559502107262343e-03,2.681827814067457884e-03,1.900271778366040276e-03,1.380321357200986346e-03,1.032698401189777876e-03,7.969163276539352860e-04,6.329587021817084831e-04,5.149493360873775519e-04,4.265111377720269374e-04,3.574764823155979600e-04,3.016286159069829324e-04,2.551975702151122998e-04,2.158879854965076162e-04,1.822692198823319730e-04,1.534043219044607393e-04,1.286316204028754850e-04,1.074408280990506772e-04,8.940581764438746044e-05,7.415020401763607765e-05,6.133114490188775641e-05,5.063272009048727814e-05,4.176394542558996775e-05,3.445870222572139342e-05,2.847616457449264773e-05,2.360104517034077831e-05,1.964338544695431367e-05,1.643782860966281630e-05,1.384241927457543358e-05,1.173701936194860306e-05,1.002144441903380993e-05,8.613422943577059288e-06,7.446471864514720945e-06,6.467768537337251931e-06,5.636085729151946200e-06,4.919842267144984941e-06,4.295308879494349501e-06,3.744996557176883602e-06,3.256243668863029017e-06,2.820008183051270306e-06,2.429862791926529148e-06
1.712035228626418825e-05,3.136393386560854576e-05,5.665129357162946628e-05,1.007705813472738540e-04,1.763772313053088862e-04,3.035886949093728098e-04,5.136746248617475108e-04,8.541368428776975651e-04,1.395459272851730511e-03,2.239731161586064855e-03,3.531179539538099703e-03,5.468363067509587720e-03,8.317362898325863368e-03,1.242476054664408067e-02,1.822855266754919851e-02,2.626449338551138310e-02,3.716479651657959848e-02,5.164583237596360316e-02,7.048159787114692543e-02,9.446049403946892020e-02,1.243244260978058624e-01,1.606914558890161770e-01,2.039660446553961948e-01,2.542440122067892716e-01,3.112222318301676727e-01,3.741251954508317268e-01,4.416613251895849523e-01,5.120207946104482488e-01,5.829234221135576322e-01,6.517200312369663129e-01,7.155440623615452189e-01,7.715030603144564791e-01,8.168930894547321575e-01,8.494143236469392511e-01,8.673640133579104683e-01,8.697843236969424741e-01,8.565471789847146633e-01,8.283656498344463825e-01,7.867304687324109258e-01,7.337795347145363856e-01,6.721162985973209159e-01,6.045984780742312825e-01,5.341208751157781043e-01,4.634149869469461613e-01,3.948840363844209889e-01,3.304858850781519086e-01,2.716691836545637728e-01,2.193612296588551835e-01,1.740003305637289610e-01,1.356016475722442716e-01,1.038437669063035779e-01,7.816347243632247588e-02,5.784795668941889596e-02,4.211643124394067600e-02,3.018618353482794073e-02,2.132106004615447886e-02,1.486277110787288455e-02,1.024711876764589254e-02,7.008214132694067129e-03,4.774061707556625719e-03,3.256703741670422675e-03,2.239619144325609608e-03,1.564427782943933823e-03,1.118295046982394590e-03,8.228520942857882716e-04,6.249902195697648946e-04,4.895650524246079145e-04,3.938463406590749470e-04,3.234479340746052424e-04,2.694423695776182914e-04,2.263791526062747532e-04,1.909643725957232464e-04,1.612065657408056848e-04,1.358801816195628746e-04,1.141985071512421375e-04,9.562048580137923616e-05,7.974053197020582022e-05,6.622819390299747604e-05,5.479675989789243554e-05,4.518802678026499867e-05,3.716565717527874833e-05,3.051278430516935538e-05,2.503146897824294333e-05,2.054275081117716757e-05,1.688668079678149530e-05,1.392207629665169663e-05,1.152592597423949903e-05,9.592464647594282800e-06,8.031979125948494693e-06,6.769419873794562141e-06,5.742893142481011804e-06,4.902101258659609278e-06,4.206788921335123552e-06,3.625242653211849363e-06,3.132880005989413995e-06,2.710955239406445277e-06,2.345399218845124946e-06,2.025803314640772483e-06,1.744550187440984230e-06,1.496088532178721060e-06
1.463512208590989828e-05,2.686150603754496237e-05,4.858467413561032527e-05,8.650691347895072679e-05,1.515204955447663399e-04,2.609416309260019756e-04,4.416876098368244458e-04,7.346505564053297912e-04,1.200509041466155807e-03,1.927152623291660807e-03,3.038750279882171477e-03,4.706249336969579866e-03,7.158732870943106813e-03,1.069459376751202492e-02,1.569093248978352742e-02,2.260901797908495409e-02,3.199317040912012799e-02,4.446016823196867473e-02,6.067640594560692879e-02,8.132067947026364041e-02,1.070317510997431665e-01,1.383417529766729215e-01,1.755989058002759839e-01,2.188856883968104405e-01,2.679410849279562079e-01,3.220973576886057566e-01,3.802424319941232200e-01,4.408180214698735333e-01,5.018608660813157485e-01,5.610900057842953537e-01,6.160373211388083803e-01,6.642124073717475818e-01,7.032871890097254219e-01,7.312815457472575664e-01,7.467294593064597308e-01,7.488063031323679564e-01,7.374018934098724998e-01,7.131302917539045216e-01,6.772751421243133896e-01,6.316773101053441142e-01,5.785785073922198318e-01,5.204393697323717038e-01,4.597524568259712674e-01,3.988697118002396125e-01,3.398604174293988756e-01,2.844103804955093184e-01,2.337669542563396152e-01,1.887285825261339478e-01,1.496726637803794113e-01,1.166122432729180397e-01,8.927055240328728158e-02,6.716261013653103407e-02,4.967461937552208884e-02,3.613423653835823313e-02,2.586744967637542858e-02,1.824032576509178674e-02,1.268596734616466576e-02,8.718487802605078343e-03,5.936645364302340841e-03,4.020043836343436400e-03,2.720649187425935780e-03,1.851941973916124574e-03,1.277471323459278101e-03,9.000114543791517489e-04,6.520227998087998501e-04,4.877263614069742926e-04,3.768220581348415230e-04,2.997096893164687050e-04,2.439840591306329670e-04,2.019498027273780724e-04,1.689141101877537942e-04,1.420487311698164304e-04,1.196533457136162505e-04,1.006923702396127625e-04,8.451212953028458986e-05,7.067337327140532741e-05,5.885534162333760818e-05,4.880286175800156479e-05,4.029848935174258498e-05,3.314869690506308536e-05,2.717758844927238671e-05,2.222439825710073520e-05,1.814270294783901298e-05,1.480025309117862038e-05,1.207888423947554017e-05,9.874271322796018271e-06,8.095450741059912091e-06,6.664114445365448189e-06,5.513716339983047291e-06,4.588444066691178412e-06,3.842110040385426273e-06,3.237010666529056812e-06,2.742795282813292509e-06,2.335378256071459953e-06,1.995919713308306082e-06,1.709893025275818632e-06,1.466250589003396876e-06,1.256693747932270136e-06,1.075047861058402026e-06,9.167395733928854609e-07
1.230313280319824688e-05,2.261564393284463717e-05,4.094989181691219250e-05,7.297059981344996746e-05,1.278847277382708873e-04,2.203302642342111711e-04,3.730625091433591601e-04,6.206521307132504108e-04,1.014398982032473041e-03,1.628609708584865525e-03,2.568265333248499673e-03,3.977898391384229390e-03,6.051195959266224278e-03,9.040447688340417717e-03,1.326449196035248829e-02,1.911333332652906392e-02,2.704719794218369416e-02,3.758757701168684989e-02,5.129791309670257010e-02,6.875213412463605789e-02,9.049031805774022941e-02,1.169623836041821241e-01,1.484627466531022177e-01,1.850611303270302543e-01,2.265368228946774698e-01,2.723252176529755153e-01,3.214860087977803316e-01,3.727016071144094722e-01,4.243120090361590657e-01,4.743885904337327708e-01,5.208444840923521779e-01,5.615739872184879466e-01,5.946086601189849441e-01,6.182742796742459745e-01,6.313313223211294289e-01,6.330825915828045547e-01,6.234349845034007354e-01,6.029077790068153586e-01,5.725864128063123948e-01,5.340274766159684994e-01,4.891264910648120412e-01,4.399640829625427463e-01,3.886478678655274077e-01,3.371665587947255127e-01,2.872698612047621669e-01,2.403832280701610480e-01,1.975613730532096435e-01,1.594794286659723115e-01,1.264565057968926598e-01,9.850362878205809469e-02,7.538676138987272790e-02,5.669580442652907143e-02,4.191172925979385483e-02,3.046599462478029666e-02,2.178864072362875215e-02,1.534358985235316497e-02,1.065144111420167523e-02,7.301288958000039069e-03,4.953797765801198731e-03,3.337991234615681705e-03,2.244080987297274610e-03,1.514295986391811250e-03,1.033205697205385803e-03,7.185524450239256025e-04,5.131865807193024005e-04,3.783654106841429160e-04,2.884419185634816375e-04,2.268237602661689963e-04,1.830093988694804226e-04,1.504862615376025242e-04,1.252865045964479110e-04,1.050240339815424498e-04,8.827084234675150747e-05,7.416452849247721490e-05,6.216833718497256163e-05,5.192876755016433133e-05,4.319373976519327391e-05,3.576722167319532802e-05,2.948511673276644126e-05,2.420311832159858405e-05,1.979101728044301424e-05,1.613029515338273867e-05,1.311324656668521727e-05,1.064269825286265032e-05,8.631859414791836729e-06,7.004094660170904246e-06,5.692546307466728363e-06,4.639600758682036869e-06,3.796224628646476875e-06,3.121207754725132452e-06,2.580351647728369918e-06,2.145638563534382144e-06,1.794410935506751108e-06,1.508584855987386792e-06,1.273915369971834091e-06,1.079325906738681488e-06,9.163093861302528888e-07,7.784044502014166836e-07,6.607468884762343464e-07,5.596936191245190875e-07
1.016819472294201459e-05,1.871418088738579992e-05,3.391549584136901118e-05,6.047423851174533132e-05,1.060333957445047860e-04,1.827451129639557888e-04,3.095011456784238632e-04,5.150034221070634837e-04,8.418440950231251231e-04,1.351718002157780698e-03,2.131789282297350246e-03,3.302062335814689997e-03,5.023355536245941062e-03,7.505146264380894647e-03,1.101216890144228119e-02,1.586824889592834686e-02,2.245551852628429462e-02,3.120698004992345301e-02,4.259046897932381587e-02,5.708252689742756431e-02,7.513158842992199993e-02,9.711122584429600357e-02,1.232658922037331573e-01,1.536534707763810015e-01,1.880906873794802592e-01,2.261087209434240186e-01,2.669267958852707401e-01,3.094508671472617212e-01,3.523025738296234333e-01,3.938805134583028278e-01,4.324518930021489793e-01,4.662682845207141158e-01,4.936952399916554324e-01,5.133426157445963867e-01,5.241812206378206884e-01,5.256321829059251716e-01,5.176182365938183372e-01,5.005706020829966407e-01,4.753906059982665466e-01,4.433707923397666728e-01,4.060851313909072946e-01,3.652612927148797817e-01,3.226493529089465850e-01,2.799006552323093922e-01,2.384680806284243948e-01,1.995352645696203409e-01,1.639779963981458089e-01,1.323568769624781372e-01,1.049368805913576674e-01,8.172715727805202057e-02,6.253336569629699970e-02,4.701496494420641381e-02,3.474095871465931323e-02,2.523923219564594075e-02,1.803648747297388957e-02,1.268755615675274014e-02,8.794327954017794671e-03,6.015565336865238456e-03,4.069457757164659378e-03,2.730956950813765490e-03,1.825823357497531434e-03,1.223012391550346934e-03,8.266401885951674914e-04,5.683719741469079115e-04,4.007259474400185796e-04,2.915093636502558128e-04,2.194084355194193131e-04,1.706328296886584772e-04,1.364544130075586456e-04,1.114616531001078037e-04,9.235996736580019044e-05,7.717161516318868245e-05,6.471730225057401292e-05,5.428973348952096707e-05,4.545381889713730184e-05,3.792792198712961223e-05,3.151543304647945248e-05,2.606666737868714177e-05,2.145847471041474247e-05,1.758384464636379775e-05,1.434693045920971040e-05,1.166085882933575801e-05,9.446863008447859130e-06,7.633959923327496481e-06,6.158778922581837728e-06,4.965362542647647106e-06,4.004872220582443572e-06,3.235188477428696485e-06,2.620421219895325614e-06,2.130355796624243505e-06,1.739862191508810174e-06,1.428292506958459786e-06,1.178887954225210794e-06,9.782121132265241497e-07,8.156228570201526952e-07,6.827913517448263705e-07,5.732730708070825490e-07,4.821328431042381307e-07,4.056235830998769660e-07,3.409164955192015530e-07
8.260058146392632296e-06,1.521748201093867869e-05,2.759818475839285925e-05,4.923530871333829136e-05,8.635979316265640800e-05,1.488791189955883756e-04,2.521960003659215899e-04,4.197121108976221765e-04,6.861549588365952086e-04,1.101828142988800930e-03,1.737802724712742171e-03,2.691927560893176731e-03,4.095331137012321425e-03,6.118818488152024705e-03,8.978251284517204528e-03,1.293767419840421290e-02,1.830867547397784303e-02,2.544432290246156567e-02,3.472608738668851031e-02,4.654253865388265771e-02,6.125932763618712612e-02,7.918106175412908954e-02,1.005070634653159323e-01,1.252845246285037017e-01,1.533639953704513115e-01,1.843631887316795892e-01,2.176454479178460688e-01,2.523186744251800229e-01,2.872589375428051817e-01,3.211604384746498675e-01,3.526102439937274236e-01,3.801826752450349622e-01,4.025449974087370597e-01,4.185636878793453364e-01,4.273995525329709055e-01,4.285805963267009799e-01,4.220438425172511332e-01,4.081409426147821762e-01,3.876068801396114760e-01,3.614956429135871008e-01,3.310906972126180237e-01,2.978008367045750227e-01,2.630531242307098116e-01,2.281941115751668081e-01,1.944085184134158595e-01,1.626615141408109255e-01,1.336672418362255810e-01,1.078828307802593145e-01,8.552434727435620498e-02,6.659924975800543545e-02,5.094906190237943888e-02,3.829608928644231969e-02,2.828887432255235493e-02,2.054242675423696013e-02,1.467078817000603934e-02,1.031093465774424699e-02,7.138212224667418032e-03,4.874340645358701818e-03,3.289497032571028073e-03,2.200143800179747873e-03,1.464174758878687699e-03,9.747074139509143489e-04,6.535322539877106004e-04,4.449065318091672454e-04,3.100944442017476666e-04,2.228303976495828913e-04,1.657229962780375904e-04,1.275188535027356853e-04,1.010954942421866400e-04,8.203773482344566340e-05,6.765917792684031839e-05,5.634945975805706348e-05,4.715118586165674994e-05,3.949337672798798718e-05,3.302819478151357345e-05,2.753377246364874622e-05,2.285810311191208900e-05,1.888769287998767231e-05,1.553069229289975292e-05,1.270821829578836630e-05,1.035013405619417563e-05,8.393138503022067501e-06,6.779970346892654241e-06,5.459087481716811554e-06,4.384497894448352641e-06,3.515591406597479480e-06,2.816913344053347614e-06,2.257867542554581917e-06,1.812357674842260966e-06,1.458384380731664486e-06,1.177617495814385543e-06,9.549612625186789789e-07,7.781276025037398940e-07,6.372292892996091697e-07,5.244016728656048205e-07,4.334587106933478161e-07,3.595865562382002826e-07,2.990758756604144041e-07,2.490924003746561587e-07,2.074839479363205960e-07
6.594140083959949985e-06,1.215818347626840664e-05,2.206264918698929448e-05,3.937629588628480375e-05,6.908777618300028967e-05,1.191295705551503030e-04,2.018342844681504710e-04,3.359394889012577452e-04,5.492517010216411847e-04,8.820497673939478502e-04,1.391241852874468624e-03,2.155178220735302647e-03,3.278857590154283987e-03,4.899049493300467253e-03,7.188602407131206885e-03,1.035894722193042745e-02,1.465958524428490409e-02,2.037323244620737814e-02,2.780534851049325934e-02,3.726707740313087158e-02,4.905121072283279149e-02,6.340165927409968649e-02,8.047802665642223019e-02,1.003180975611230735e-01,1.228021954530594817e-01,1.476241991714157820e-01,1.742743006988029253e-01,2.020381470852646855e-01,2.300157461079186116e-01,2.571614755133364016e-01,2.823439265635622197e-01,3.044214865030122064e-01,3.223269701927246600e-01,3.351527149259841409e-01,3.422267452129747478e-01,3.431711241435864146e-01,3.379354401040940981e-01,3.268012986463110781e-01,3.103572614437329902e-01,2.894473350584579885e-01,2.650992821130210286e-01,2.384412212124646102e-01,2.106158989367025447e-01,1.827015904911496735e-01,1.556469809268778703e-01,1.302249465541009399e-01,1.070073499660947475e-01,8.636024525587092382e-02,6.845665055250158004e-02,5.330253657682116480e-02,4.077099741220727852e-02,3.063965930770004217e-02,2.262707923112705979e-02,1.642496002430342619e-02,1.172422705473859759e-02,8.234168892134236320e-03,5.694797835877753872e-03,3.883259584410067231e-03,2.615502202781938394e-03,1.744537361746161018e-03,1.156554012320150067e-03,7.659479401914363189e-04,5.100765838395674443e-04,3.442896297660715497e-04,2.375572106532099930e-04,1.688371903000596965e-04,1.241956616185051936e-04,9.461588458998768678e-05,7.439098793808569332e-05,5.998384477357600737e-05,4.924333895130128742e-05,4.088145327981566337e-05,3.413426729566954135e-05,2.854827649577210767e-05,2.384941907550001513e-05,1.986504533201007469e-05,1.647878601906602441e-05,1.360527012220510207e-05,1.117646177729014711e-05,9.134581460080052075e-06,7.428622404931990215e-06,6.012741193749162393e-06,4.845563629801850432e-06,3.889891828612243269e-06,3.112550558851344842e-06,2.484249413294479331e-06,1.979410880754243165e-06,1.575951586471069283e-06,1.255021438203883477e-06,1.000712457884313605e-06,7.997507984503660226e-07,6.411845910926247526e-07,5.160782957546889475e-07,4.172218960419229646e-07,3.388609747780752449e-07,2.764516156563678947e-07,2.264422806689337023e-07,1.860833358291562213e-07,1.532637318643851505e-07,1.263734686284168072e-07
5.172624283268832512e-06,9.543447153816759379e-06,1.732595718719973505e-05,3.093289659390276744e-05,5.428664051023418790e-05,9.362436183241535845e-05,1.586431884309859623e-04,2.640767128008064679e-04,4.317898237445586440e-04,6.934549761155408588e-04,1.093821068405262387e-03,1.694498011827703758e-03,2.578050797364023466e-03,3.852027513490894391e-03,5.652347095446321260e-03,8.145267965365233370e-03,1.152698543655016929e-02,1.601981336856968252e-02,2.186395025519888985e-02,2.930406440480383748e-02,3.857039251587166678e-02,4.985473338433699109e-02,6.328259003965043539e-02,7.888367210112742778e-02,9.656386815903100773e-02,1.160824544834246214e-01,1.370385365426572688e-01,1.588703743930284795e-01,1.808702495062449178e-01,2.022159266321086890e-01,2.220177125764263015e-01,2.393778914342795661e-01,2.534572757052528935e-01,2.635421215934132255e-01,2.691040220242615355e-01,2.698457918167991854e-01,2.657278001968074177e-01,2.569715028206189245e-01,2.440397344723720108e-01,2.275962023050408789e-01,2.084491121627704557e-01,1.874855856061401205e-01,1.656042463373692264e-01,1.436530191575809967e-01,1.223779227320122842e-01,1.023867247806361930e-01,8.412912161673019584e-02,6.789296753896521819e-02,5.381431855796233593e-02,4.189786876587640180e-02,3.204382095931070096e-02,2.407730359757241298e-02,1.777699340460426117e-02,1.290044836465359043e-02,9.204613681263188602e-03,6.460873586321419157e-03,4.464771521753356856e-03,3.041050802821018435e-03,2.044967370237500345e-03,1.360922817804521238e-03,8.994086292108706675e-04,5.930978668219607846e-04,3.927207740928080225e-04,2.631571898336056235e-04,1.799988438715649454e-04,1.266927919869687631e-04,9.227710101363683802e-05,6.965785333876030447e-05,5.434516313232243820e-05,4.355652928556054426e-05,3.560041656294465884e-05,2.946492060776778756e-05,2.455104299590343377e-05,2.050451140010803037e-05,1.711264058877205838e-05,1.424283307407458691e-05,1.180696150755930010e-05,9.741373828893930574e-06,7.996050849467288899e-06,6.528957789931154078e-06,5.303239274149532927e-06,4.285903741228708036e-06,3.447242098385739900e-06,2.760574888134465474e-06,2.202120282083071637e-06,1.750884072941738503e-06,1.388530631315677075e-06,1.099223119823012261e-06,8.694351213394730359e-07,6.877415353649132277e-07,5.445981253731953256e-07,4.321186104122677912e-07,3.438568228179513112e-07,2.745997917065905105e-07,2.201759590636759492e-07,1.772812371453873792e-07,1.433243351912594747e-07,1.162917381349934764e-07,9.463190408121564231e-08,7.715764213069157893e-08
3.986543888835275108e-06,7.359007531222661749e-06,1.336516667757873324e-05,2.386795021377464862e-05,4.189600512717717948e-05,7.226545539542681275e-05,1.224642111563537395e-04,2.038693790673901845e-04,3.333649344447843022e-04,5.354083955317053911e-04,8.445551261040026543e-04,1.308380870294672529e-03,1.990643292353203118e-03,2.974392514692511015e-03,4.364587227944713953e-03,6.289614932597862446e-03,8.900981055661897484e-03,1.237036034237771337e-02,1.688323843777960256e-02,2.262855264257322002e-02,2.978409577618686827e-02,3.849797793434073939e-02,4.886711397017137054e-02,6.091444470255241023e-02,7.456729332422909473e-02,8.963976544750038022e-02,1.058222789747791104e-01,1.226810432379394911e-01,1.396695396464752992e-01,1.561528174561947202e-01,1.714438338788720484e-01,1.848493516030150496e-01,1.957213313659308951e-01,2.035086057321550956e-01,2.078031300473390797e-01,2.083754161280912953e-01,2.051948668337331416e-01,1.984325034592999137e-01,1.884457470708068572e-01,1.757471379201656914e-01,1.609608019829308345e-01,1.447718058193826762e-01,1.278740977941049128e-01,1.109224745575738136e-01,9.449303725426749789e-02,7.905512491546833054e-02,6.495600842528999330e-02,5.241797864893932984e-02,4.154610240035194746e-02,3.234400393048274258e-02,2.473461516281311515e-02,1.858289232075678241e-02,1.371791917249962252e-02,9.952469989751185769e-03,7.098844969240744943e-03,4.980493835898619319e-03,3.439522234774529223e-03,2.340584479215752738e-03,1.571897503512878144e-03,1.044185450045069345e-03,6.883201095111316859e-04,4.523029776510673278e-04,2.980804168806433334e-04,1.985262156711916563e-04,1.347869715196285190e-04,9.407621405753370048e-05,6.792584998655722410e-05,5.085560241816271064e-05,3.939688798048092129e-05,3.140034193718609638e-05,2.555972828475039152e-05,2.109421089028302833e-05,1.754229056687358704e-05,1.463183954536027362e-05,1.220036398337421281e-05,1.014742643526681781e-05,8.407061909477409943e-06,6.932266891733455107e-06,5.686565807110471792e-06,4.639598538172864183e-06,3.764913858808247547e-06,3.038922740584297452e-06,2.440427643713221193e-06,1.950413549791409898e-06,1.551939297571479209e-06,1.230051792337978556e-06,9.716902943788815386e-07,7.655706876172457163e-07,6.020504172704651888e-07,4.729792869844502735e-07,3.715425995445002624e-07,2.921028636358133021e-07,2.300453444493166440e-07,1.816315608502840848e-07,1.438636557987620645e-07,1.143615007194552548e-07,9.125348632426988062e-08,7.308121570666051984e-08,5.871774570570809226e-08,4.729860526773088406e-08
3.018425655385927876e-06,5.574231942661830851e-06,1.012674797142101224e-05,1.808856441326410180e-05,3.175625275361658532e-05,5.478186695511933028e-05,9.284354846615529668e-05,1.545687366984026679e-04,2.527609161304111558e-04,4.059668623568921759e-04,6.403909290951870833e-04,9.921113337981943281e-04,1.509477693060841093e-03,2.255469883100495038e-03,3.309681955518151229e-03,4.769475009217769360e-03,6.749741440472221271e-03,9.380668890099121138e-03,1.280291838078402404e-02,1.715976845087263669e-02,2.258604626439762036e-02,2.919406924814330062e-02,3.705733120460498464e-02,4.619322815767103185e-02,5.654664507677424623e-02,6.797660907973719635e-02,8.024834950980518078e-02,9.303290299823958887e-02,1.059158198176746030e-01,1.184155885226315097e-01,1.300111943569527140e-01,1.401769254725727110e-01,1.484213462834974295e-01,1.543264840552862061e-01,1.575829031003744829e-01,1.580165757275870386e-01,1.556043028195303046e-01,1.504757820612303287e-01,1.429020668341839106e-01,1.332718446060890127e-01,1.220584233916393452e-01,1.097813250964483206e-01,9.696680682995302558e-02,8.411143476209302638e-02,7.165209613689184354e-02,5.994471497430692991e-02,4.925264471717272219e-02,3.974445996079068594e-02,3.149983811832297864e-02,2.452152723243932256e-02,1.875108184248313117e-02,1.408609008295885409e-02,1.039693565038877880e-02,7.541633376458333100e-03,5.377838056728194427e-03,3.771659277933285450e-03,2.603353983814667410e-03,1.770278652706263082e-03,1.187658350917394825e-03,7.877864850949852947e-04,5.182355497313367605e-04,3.395685783685678809e-04,2.229240141093416744e-04,1.477275073389574156e-04,9.967884029002698940e-05,6.907913304805753671e-05,4.950483982401670472e-05,3.679871332049785947e-05,2.832954141860401039e-05,2.246697557043922247e-05,1.822044495496927112e-05,1.499815692744223671e-05,1.245077537099781126e-05,1.037280612952495600e-05,8.642073735582496018e-06,7.183589359087848510e-06,5.948585045421919774e-06,4.902708666380960239e-06,4.019591864915071446e-06,3.277473475694987554e-06,2.657501900956950802e-06,2.142922923499313736e-06,1.718709729734740081e-06,1.371396272656132620e-06,1.088990906228424791e-06,8.609108979730427788e-07,6.779122782698506863e-07,5.320067266970062525e-07,4.163654270521472097e-07,3.252132995428199405e-07,2.537180694639627813e-07,1.978785050722765528e-07,1.544155113025140823e-07,1.206689413275382219e-07,9.450215725061298329e-08,7.421561777727604649e-08,5.847013040027346790e-08,4.621988876801490159e-08,3.665501905588815610e-08,2.915307163860836000e-08
2.245103261404953089e-06,4.147468540719636980e-06,7.536497238285619623e-06,1.346407666813175178e-05,2.364038608748338211e-05,4.078502693924690458e-05,6.912642789284425995e-05,1.150893685646237622e-04,1.882085512017538478e-04,3.022957468633429858e-04,4.768653882392295926e-04,7.387850656800516161e-04,1.124061003369674532e-03,1.679594734891298822e-03,2.464660553624795775e-03,3.551764074810621463e-03,5.026466673332483787e-03,6.985720269952248873e-03,9.534276430895509760e-03,1.277883600478866601e-02,1.681980597817603340e-02,2.174083003114625143e-02,2.759663937519717114e-02,3.440018846938786012e-02,4.211043184764890618e-02,5.062238459867123702e-02,5.976120942354100352e-02,6.928192255218018625e-02,7.887587752005197073e-02,8.818448628967566483e-02,9.681974241471584530e-02,1.043901417468025006e-01,1.105297064597709072e-01,1.149271678640552546e-01,1.173520866516257338e-01,1.176748640548105074e-01,1.158782257372089342e-01,1.120587619877345259e-01,1.064183328376876320e-01,9.924640217279578902e-02,9.089545200585101570e-02,8.175238041379043197e-02,7.220910111675386822e-02,6.263541633223822236e-02,5.335668422213257073e-02,4.463796810931128234e-02,3.667539226475477476e-02,2.959449733924374853e-02,2.345462050081332031e-02,1.825780802811017775e-02,1.396053404449662354e-02,1.048652980882271504e-02,7.739266630201611236e-03,5.613004182238958729e-03,4.001733710395274229e-03,2.805742628331330500e-03,1.935853926150246955e-03,1.315624774052452173e-03,8.819193210318441176e-04,5.843128088392027806e-04,3.837591537044111878e-04,2.508866868287148565e-04,1.641996188236172314e-04,1.083740181115438295e-04,7.275866925468351559e-05,5.012933286142437126e-05,3.570125483260742460e-05,2.637771688322042109e-05,2.019873749628953779e-05,1.594994803565136519e-05,1.289366072716653033e-05,1.058936306377804820e-05,8.777271033902346814e-06,7.304857030009389696e-06,6.081745520520058425e-06,5.052774875602526461e-06,4.182356214619486607e-06,3.445657413874866758e-06,2.823791864905749371e-06,2.301286254943112105e-06,1.864802244352998449e-06,1.502520946641158387e-06,1.203859876909353563e-06,9.593441479576292134e-07,7.605398876794936617e-07,6.000052522285702188e-07,4.712396213409621326e-07,3.686244206740382410e-07,2.873551758867498134e-07,2.233670297742611872e-07,1.732567776046279592e-07,1.342044239257331088e-07,1.038968244444093923e-07,8.045540154502982201e-08,6.236933917530373180e-08,4.843513375080987473e-08,3.770292890852442942e-08,2.942970103704428463e-08,2.303908705161199385e-08,1.808744805635847432e-08
1.640378711593998542e-06,3.031089180291068693e-06,5.508863881293138251e-06,9.842928039213502266e-06,1.728392241829410808e-05,2.982069257475587204e-05,5.054551543701708122e-05,8.415690220317903925e-05,1.376277163679994820e-04,2.210587378936219340e-04,3.487212367731009331e-04,5.402640248844121744e-04,8.220192230495779444e-04,1.228286966050536749e-03,1.802415903328057024e-03,2.597431090416165746e-03,3.675905597676580681e-03,5.108742696719223431e-03,6.972549740035759863e-03,9.345359634274222685e-03,1.230060240750205890e-02,1.589944862307523729e-02,2.018192437083813490e-02,2.515750327154508276e-02,3.079616734523620350e-02,3.702113797962754832e-02,4.370455164789033980e-02,5.066724485482677898e-02,5.768349592085483118e-02,6.449105963685269893e-02,7.080617644026761248e-02,7.634252896157800450e-02,8.083246810912435298e-02,8.404835527642597059e-02,8.582166480102611239e-02,8.605761867166769608e-02,8.474358499972656222e-02,8.195020438099204219e-02,7.782510418669598418e-02,7.257997897019236033e-02,6.647261019800246307e-02,5.978594872016405881e-02,5.280661337841137393e-02,4.580505212505532608e-02,3.901920956445827093e-02,3.264293479820565280e-02,2.681965964265111205e-02,2.164119588931406879e-02,1.715093860902349235e-02,1.335038417631252000e-02,1.020770051168787100e-02,7.667109513502507086e-03,5.658016183238517328e-03,4.103088594221805836e-03,2.924798342525037568e-03,2.050221457386449102e-03,1.414138839235227650e-03,9.606442013053988638e-04,6.435630140623568472e-04,4.260167557437274000e-04,2.794485128890838088e-04,1.823766384971880811e-04,1.190794581608448099e-04,7.834909106379169832e-05,5.239509932042019026e-05,3.593345094393659352e-05,2.546434204912163715e-05,1.872263742941089170e-05,1.427468221780650588e-05,1.123225039986562381e-05,9.055852803806067026e-06,7.423443163344615274e-06,6.145239740548070761e-06,5.109975196290941853e-06,4.251892948504496362e-06,3.531029867716149180e-06,2.921762167966319543e-06,2.406344415701242921e-06,1.971379210803588688e-06,1.605955555039512589e-06,1.300706199073438426e-06,1.047351600698176964e-06,8.384887691990319050e-07,6.674944743079789895e-07,5.284753098404412392e-07,4.162317571356264752e-07,3.262218327782628656e-07,2.545193190721348048e-07,1.977660973169894081e-07,1.531200456902773657e-07,1.182005890706122982e-07,9.103397386496312705e-08,7.000004248227682832e-08,5.378188332191345269e-08,4.131932579436748458e-08,3.176688070983026323e-08,2.445641361513509265e-08,1.886458792869490522e-08,1.458492426305436863e-08,1.130418651895455231e-08
1.177305659077098237e-06,2.175810436808579497e-06,3.954935829850257900e-06,7.067100319855696882e-06,1.241046040788001817e-05,2.141333099559825632e-05,3.629648343207965894e-05,6.043424835230018244e-05,9.883434486225486492e-05,1.587508938529640676e-04,2.504331745652129174e-04,3.879925066779965777e-04,5.903400281313229709e-04,8.821093468963811480e-04,1.294432537283207599e-03,1.865391080891992855e-03,2.639923659471508401e-03,3.668951544858314439e-03,5.007492568946161557e-03,6.711588365798132338e-03,8.833974863435704525e-03,1.141858346587579752e-02,1.449416000486607528e-02,1.806750809271916863e-02,2.211706920562556480e-02,2.658770220357263570e-02,3.138757771706898042e-02,3.638802370841606043e-02,4.142693094511581270e-02,4.631595971793008720e-02,5.085131917012365721e-02,5.482738155593843560e-02,5.805192643881567499e-02,6.036146828405013209e-02,6.163497550101550149e-02,6.180438082256081711e-02,6.086061292776441534e-02,5.885440536195694211e-02,5.589178223671256024e-02,5.212477958985140686e-02,4.773853225651154136e-02,4.293625125078524840e-02,3.792378182762629751e-02,3.289535553086837816e-02,2.802186049290091713e-02,2.344251613826294975e-02,1.926033297778500727e-02,1.554124881173869245e-02,1.231642927920307065e-02,9.586948984839747598e-03,7.329946496446172743e-03,5.505362646959682631e-03,4.062496920220396920e-03,2.945810354735138928e-03,2.099622796104924378e-03,1.471560844655910114e-03,1.014784555469215241e-03,6.891422546143242088e-04,4.614714384961156931e-04,3.052858462197194887e-04,2.000756813723236598e-04,1.304125273340147229e-04,8.500473974715026934e-05,5.580247304744994470e-05,3.721030791934853857e-05,2.543296459955260035e-05,1.795664857519054501e-05,1.315436504625542559e-05,9.996352168722752717e-06,7.844637986643191688e-06,6.311772282991211829e-06,5.166525148325013064e-06,4.272704347221882369e-06,3.550543718639861939e-06,2.952991513478244500e-06,2.451541215841123471e-06,2.027997546372247786e-06,1.669829300636548932e-06,1.367627912763836386e-06,1.113765454998723499e-06,9.017136425077478870e-07,7.257132820882004807e-07,5.806204889953425836e-07,4.618358393612762333e-07,3.652678667897497261e-07,2.873071949257270019e-07,2.248008412147849053e-07,1.750229932668032480e-07,1.356418151133131644e-07,1.046832458632608813e-07,8.049321431853626919e-08,6.169969498855770520e-08,4.717582847725329909e-08,3.600505398564139640e-08,2.744892004920039591e-08,2.091798360305568509e-08,1.594599081087087348e-08,1.216735982014911510e-08,9.297854486411821245e-09,7.118245154096667411e-09
8.299680754382938286e-07,1.534060763082447145e-06,2.788663547242700443e-06,4.983370682988695568e-06,8.751613292558422277e-06,1.510072553818844217e-05,2.559693574569903263e-05,4.262004182015642314e-05,6.970182109787476695e-05,1.119583713349299150e-04,1.766181877379215852e-04,2.736335507681106035e-04,4.163419148767489339e-04,6.221166293976199916e-04,9.129142275427614556e-04,1.315592462976766276e-03,1.861845279166887733e-03,2.587585971659370036e-03,3.531617023850549923e-03,4.733462976419079184e-03,6.230316945506552892e-03,8.053162459099611620e-03,1.022227308089820701e-02,1.274244713492956108e-02,1.559847991731088540e-02,1.875148183815154163e-02,2.213668812140551917e-02,2.566334988754697191e-02,2.921713594489999677e-02,3.266521549466331470e-02,3.586386050047717794e-02,3.866804745537649746e-02,4.094220869973559662e-02,4.257104255382870156e-02,4.346918898233533002e-02,4.358864227510010625e-02,4.292300498161921718e-02,4.150805841442781197e-02,3.941857882939907298e-02,3.676179344599084936e-02,3.366827316081666410e-02,3.028133749538425637e-02,2.674616380892943374e-02,2.319973859731101415e-02,1.976258484670534443e-02,1.653289042147930779e-02,1.358330597446939098e-02,1.096033572982377767e-02,8.685959994707642684e-03,6.760936629249819294e-03,5.169141999330856274e-03,3.882323320036464367e-03,2.864722700369680321e-03,2.077169779276100484e-03,1.480394577277501086e-03,1.037459248516233324e-03,7.153285208190952003e-04,4.856841656172396562e-04,3.251372234627872022e-04,2.150073136514514332e-04,1.408291079037735387e-04,9.172105868607806291e-05,5.971919919539351928e-05,3.914594754270585010e-05,2.605479752595170356e-05,1.776886982485703900e-05,1.251511969717337454e-05,9.145975256027141689e-06,6.935112108193226192e-06,5.432557273852381745e-06,4.365053265133733075e-06,3.569546052648850594e-06,2.950030556520097723e-06,2.450314792800771761e-06,2.037292618756525433e-06,1.690946743280004980e-06,1.398537974157567753e-06,1.151324550994309534e-06,9.427670234307460237e-07,7.675795141160769507e-07,6.212476247914332195e-07,4.997939360515730714e-07,3.996685794515397763e-07,3.176986624373044855e-07,2.510622282005828630e-07,1.972699795658219748e-07,1.541473364595014889e-07,1.198141708021492517e-07,9.266186268212875005e-08,7.132831740808006611e-08,5.467191338285716851e-08,4.174535739116671594e-08,3.177028631680250279e-08,2.411326512666648884e-08,1.826363687649151609e-08,1.381350400929921527e-08,1.043997101753516212e-08,7.889659449065833149e-09,5.965416393233347799e-09,4.515074185548781533e-09
5.747171456735493967e-07,1.062327655003501662e-06,1.931205760728129815e-06,3.451178893704757748e-06,6.060953863551378748e-06,1.045819991708430657e-05,1.772767254491417052e-05,2.951760028968637259e-05,4.827406562452521530e-05,7.754044209486976569e-05,1.223231378016484297e-04,1.895150395540081171e-04,2.883535874649112798e-04,4.308714610976982604e-04,6.322756292336477848e-04,9.111676205760461163e-04,1.289498484001433800e-03,1.792141569951004494e-03,2.445971265380857823e-03,3.278362049917224377e-03,4.315073669466422401e-03,5.577565139252865789e-03,7.079877805550715587e-03,8.825334939572340720e-03,1.080340581394283357e-02,1.298715566647194730e-02,1.533172870995672989e-02,1.777427269788733888e-02,2.023560239504234096e-02,2.262371983611740842e-02,2.483907969191816861e-02,2.678123940847369766e-02,2.835630551940561406e-02,2.948442069263201848e-02,3.010646504941797558e-02,3.018919015110524406e-02,2.972816525261604004e-02,2.874817242851250565e-02,2.730100147219393161e-02,2.546091756375247137e-02,2.331835360345915417e-02,2.097257212549391917e-02,1.852412238703012720e-02,1.606788068222854762e-02,1.368732074360592792e-02,1.145044708866768506e-02,9.407577265592373048e-03,7.590919910740517515e-03,6.015698491634288714e-03,4.682437889127298060e-03,3.579970921134304276e-03,2.688729794228819810e-03,1.983948696728975430e-03,1.438498341156288843e-03,1.025180432135270377e-03,7.184118891981407544e-04,4.953125291804160975e-04,3.362691673430673973e-04,2.250826068226646651e-04,1.488147924227515369e-04,9.744699926620622738e-05,6.344261932501425326e-05,4.128575635111186349e-05,2.704406411149085635e-05,1.798414286113740552e-05,1.225194264862006547e-05,8.619417433248218808e-06,6.291732819134462226e-06,4.765819943500180784e-06,3.730020266070999046e-06,2.995077116491493750e-06,2.448068541768123389e-06,2.022517379995650545e-06,1.679526493127855430e-06,1.396192230342543353e-06,1.158679308447561543e-06,9.581951605842505141e-07,7.887167345704930969e-07,6.457463120567256750e-07,5.256536757488686997e-07,4.253416173197283735e-07,3.420830676743317817e-07,2.734449818615104427e-07,2.172531023116766712e-07,1.715738171835312836e-07,1.347014827705442685e-07,1.051460480669093124e-07,8.161912686029342502e-08,6.301825675007796062e-08,4.840977545828973619e-08,3.701097507163901091e-08,2.817220098902147060e-08,2.135946858462479033e-08,1.613804104070406751e-08,1.215727877451229436e-08,9.136949951261618305e-09,6.855089438304239771e-09,5.137412164257182269e-09,3.848225594714818709e-09,2.882742974424172725e-09
